ncols 336
nrows 31
xllcorner -100.699996949
yllcorner 27.6333325785
cellsize 0.0833333333
NODATA_value -9999
-27.9542 -27.7992 -28.1262 -28.522 -28.0859 -28.3134 -27.7923 -28.2979 -27.5305 -27.4084 -27.8671 -28.5794 -28.2213 -27.5892 -28.4206 -28.4422 -27.9058 -28.35 -27.694 -27.5714 -26.5237 -25.8192 -25.45 -25.4533 -24.9307 -24.9697 -25.02 -26.0469 -24.4968 -23.3486 -23.7451 -24.0773 -22.9126 -23.1113 -21.9028 -20.6652 -20.2607 -19.3359 -19.2458 -19.2865 -19.4156 -19.6886 -20.2527 -20.0964 -19.8289 -19.3666 -19.0326 -18.7928 -18.8201 -19.1527 -19.4375 -19.0715 -18.32 -18.1241 -18.2462 -17.9062 -18.1514 -18.6302 -18.5017 -18.5188 -18.2245 -18.1346 -17.9684 -17.6692 -17.5783 -17.6242 -17.5008 -17.492 -17.4601 -17.4496 -17.4556 -17.0742 -17.227 -17.2905 -17.1049 -17.2434 -16.9919 -17.003 -16.9485 -16.9103 -16.8917 -16.945 -16.9696 -16.9211 -16.9436 -16.8979 -16.8521 -16.86 -16.8572 -16.9261 -16.8693 -16.8782 -16.8946 -16.9154 -16.9325 -16.9386 -16.9427 -17.0028 -17.0631 -17.0323 -17.1171 -17.111 -17.1965 -17.2653 -17.314 -17.2807 -17.262 -17.2985 -17.2801 -17.4641 -17.5018 -17.5769 -17.6156 -17.5847 -17.6444 -17.643 -17.6619 -17.7344 -17.7178 -17.7341 -17.7669 -17.7594 -17.7309 -17.7523 -17.7695 -17.7821 -17.7899 -17.7929 -17.7911 -17.7847 -17.774 -17.7415 -17.724 -17.7564 -17.7573 -17.6706 -17.6404 -17.6099 -17.5779 -17.5444 -17.5098 -17.474 -17.4374 -17.3998 -17.3615 -17.3225 -17.2827 -17.2423 -17.2012 -17.1595 -17.1171 -17.074 -17.0302 -16.9857 -16.9404 -16.8943 -16.8474 -16.7997 -16.7511 -16.7015 -16.651 -16.5995 -16.547 -16.4935 -16.439 -16.3833 -16.3266 -16.2689 -16.21 -16.1501 -16.0892 -16.0272 -15.9643 -15.9005 -15.8359 -15.7706 -15.7047 -15.6382 -15.5715 -15.5047 -15.4381 -15.6515 -15.662 -15.5977 -15.6268 -15.5644 -15.5299 -15.3327 -15.3286 -15.432 -15.4167 -15.373 -15.248 -15.3976 -15.2622 -15.2916 -15.2111 -15.1297 -15.1683 -15.2065 -15.2554 -15.3046 -15.4622 -15.4648 -15.5763 -15.7043 -15.9021 -15.9986 -16.0199 -16.0961 -16.1042 -16.1632 -16.1835 -16.3442 -16.7261 -16.7158 -16.4807 -16.9073 -16.8381 -16.8926 -16.9777 -17.0492 -16.779 -16.9988 -17.1076 -16.8069 -16.8317 -16.8578 -16.4119 -16.4782 -16.8545 -16.8543 -16.7205 -16.6574 -16.6803 -16.7002 -16.7169 -16.7304 -16.7406 -16.7474 -16.7509 -16.751 -16.7478 -16.7414 -16.7319 -16.7193 -16.7039 -16.6858 -16.6651 -16.6421 -16.6169 -16.5898 -16.561 -16.5306 -16.4989 -16.4661 -16.4324 -16.3979 -16.3629 -16.3274 -16.2916 -16.2557 -16.2199 -16.1841 -16.1486 -16.1133 -16.0785 -16.0441 -16.0103 -15.9771 -15.9445 -15.9126 -15.8814 -15.851 -15.8214 -15.7925 -15.7644 -15.7372 -15.7108 -15.6851 -15.6603 -15.6364 -15.6132 -15.5908 -15.5692 -15.5484 -15.5284 -15.5091 -15.4906 -15.4727 -15.4556 -15.4392 -15.4235 -15.4084 -15.394 -15.3801 -15.3669 -15.3543 -15.3423 -15.3308 -15.3198 -15.3094 -15.2995 -15.2901 -15.2812 -15.2727 -15.2646 -15.257 -15.2498 -15.2431 -15.2367 -15.2306 -15.225 -15.2196 -15.2146 -15.21 -15.2056 -15.2015 -15.1978 -15.1943 -15.191 -15.188 -15.1852 -15.1827 -15.1804 -15.1783 -15.1764 -15.1747 -15.1731 -15.1717 -15.1705 -15.1695 -15.1686 -15.1678 -15.1672 -15.1666
-26.8579 -27.7469 -27.5828 -27.8954 -28.5556 -28.3422 -28.6148 -28.0092 -28.2919 -28.4505 -28.5373 -28.1376 -28.3645 -28.5022 -28.689 -28.3374 -27.792 -27.1154 -27.1162 -27.124 -27.3445 -26.7775 -27.5402 -26.4498 -26.2189 -26.7171 -26.2066 -25.0035 -24.5636 -25.1014 -24.8337 -23.4675 -22.7858 -22.5349 -21.1085 -20.3766 -20.1786 -19.9221 -19.6834 -19.8568 -19.1846 -19.3768 -19.3962 -19.6924 -19.4753 -19.3144 -19.1729 -19.1995 -19.1929 -19.2844 -18.893 -18.6518 -18.6304 -18.5069 -18.2299 -17.9696 -18.1151 -18.4748 -18.2841 -18.1065 -17.954 -17.7234 -17.7524 -17.5586 -17.4198 -17.3901 -17.3416 -17.2253 -17.2506 -17.1669 -17.249 -16.9357 -17.0719 -17.0966 -17.1443 -17.0154 -16.9207 -16.8661 -16.8113 -16.8105 -16.7543 -16.8311 -16.7975 -16.7666 -16.7396 -16.7128 -16.716 -16.7262 -16.7362 -16.8645 -16.7988 -16.7783 -16.8312 -16.7931 -16.8217 -16.8 -16.8389 -16.9859 -16.8679 -16.9311 -16.9935 -17.0593 -17.0708 -17.102 -17.2061 -17.2577 -17.2419 -17.2029 -17.2341 -17.3436 -17.38 -17.3817 -17.3895 -17.527 -17.4991 -17.4262 -17.5305 -17.6252 -17.6152 -17.647 -17.6582 -17.7016 -17.6882 -17.7262 -17.6524 -17.6635 -17.6703 -17.6727 -17.6707 -17.6645 -17.6543 -17.6403 -17.623 -17.6025 -17.5794 -17.5537 -17.526 -17.4963 -17.465 -17.4322 -17.3981 -17.3629 -17.3267 -17.2895 -17.2514 -17.2126 -17.173 -17.1327 -17.0917 -17.05 -17.0076 -16.9645 -16.9207 -16.8761 -16.8308 -16.7847 -16.7378 -16.6901 -16.6415 -16.592 -16.5416 -16.4903 -16.438 -16.3847 -16.3304 -16.2751 -16.2188 -16.1616 -16.1033 -16.044 -15.9839 -15.9228 -15.8609 -15.7981 -15.7348 -15.6708 -15.6063 -15.5416 -15.4767 -15.412 -15.3476 -15.1771 -15.3488 -15.4624 -15.4733 -15.3319 -15.2777 -15.296 -15.2019 -15.2328 -15.2341 -15.2294 -15.1803 -15.1891 -15.1405 -15.1736 -15.1204 -15.1301 -14.923 -15.03 -15.1443 -15.2472 -15.2803 -15.3178 -15.4273 -15.5556 -15.7553 -15.9405 -15.9806 -16.0096 -15.7972 -15.8629 -15.992 -16.3185 -16.5703 -16.512 -16.4921 -16.4788 -16.8026 -16.7366 -16.9332 -16.9019 -16.9137 -16.9813 -17.3333 -16.8731 -16.8361 -16.6779 -16.4766 -16.5238 -16.7346 -16.8743 -16.7504 -16.6701 -16.6957 -16.7179 -16.7368 -16.7522 -16.764 -16.7721 -16.7766 -16.7775 -16.7747 -16.7685 -16.7588 -16.7458 -16.7297 -16.7106 -16.6888 -16.6645 -16.6379 -16.6092 -16.5787 -16.5465 -16.513 -16.4783 -16.4426 -16.4061 -16.3691 -16.3317 -16.2941 -16.2563 -16.2186 -16.181 -16.1437 -16.1068 -16.0704 -16.0345 -15.9992 -15.9645 -15.9306 -15.8974 -15.8649 -15.8333 -15.8026 -15.7727 -15.7436 -15.7154 -15.6881 -15.6616 -15.6361 -15.6113 -15.5875 -15.5644 -15.5423 -15.5209 -15.5003 -15.4805 -15.4615 -15.4433 -15.4258 -15.409 -15.3929 -15.3775 -15.3627 -15.3486 -15.3352 -15.3223 -15.31 -15.2983 -15.2872 -15.2766 -15.2665 -15.2569 -15.2478 -15.2392 -15.231 -15.2233 -15.216 -15.209 -15.2025 -15.1964 -15.1906 -15.1852 -15.1801 -15.1753 -15.1709 -15.1667 -15.1628 -15.1592 -15.1559 -15.1528 -15.15 -15.1473 -15.1449 -15.1427 -15.1408 -15.1389 -15.1373 -15.1359 -15.1346 -15.1334 -15.1324 -15.1316 -15.1309 -15.1303
-26.7233 -26.6533 -27.3524 -28.6494 -28.4975 -28.8047 -28.6563 -28.2666 -28.3568 -27.9935 -28.9448 -28.5337 -28.4298 -28.7144 -27.8895 -27.2376 -27.1879 -26.5454 -26.2252 -25.4812 -26.7881 -26.082 -26.4852 -26.3319 -25.4585 -26.6245 -26.1626 -25.8658 -24.1652 -22.9278 -22.8774 -22.5605 -23.1316 -21.6795 -21.1248 -20.5142 -20.487 -19.6058 -19.7666 -19.4571 -19.1744 -18.7487 -18.6551 -18.7119 -18.9169 -19.0761 -18.5606 -19.3007 -18.9635 -19.1371 -18.658 -18.5501 -18.3301 -18.5829 -17.9835 -17.6916 -17.821 -18.0976 -18.1064 -17.8604 -17.7604 -17.6337 -17.4805 -17.3807 -17.3145 -17.2668 -17.1488 -16.9972 -17.0196 -17.045 -17.0435 -16.7792 -16.9699 -16.9814 -16.9942 -16.9522 -16.8031 -16.7313 -16.7124 -16.692 -16.5864 -16.6673 -16.6816 -16.633 -16.5853 -16.5916 -16.6168 -16.5922 -16.6202 -16.5789 -16.6818 -16.6957 -16.7118 -16.6938 -16.7665 -16.7492 -16.7549 -16.7777 -16.8012 -16.8466 -16.8906 -16.9334 -16.9992 -17.0111 -17.0606 -17.076 -17.1619 -17.1754 -17.159 -17.2463 -17.2095 -17.2797 -17.2611 -17.3145 -17.3658 -17.4358 -17.4674 -17.5351 -17.4735 -17.6003 -17.5522 -17.5207 -17.507 -17.628 -17.6431 -17.5639 -17.5519 -17.5537 -17.5515 -17.5454 -17.5356 -17.5222 -17.5056 -17.4861 -17.4638 -17.4213 -17.4123 -17.3835 -17.353 -17.321 -17.2876 -17.253 -17.2173 -17.1806 -17.143 -17.1045 -17.0652 -17.0252 -16.9844 -16.9429 -16.9007 -16.8577 -16.814 -16.7696 -16.7244 -16.6785 -16.6318 -16.5842 -16.5358 -16.4866 -16.4364 -16.3854 -16.3335 -16.2806 -16.2268 -16.172 -16.1164 -16.0598 -16.0023 -15.9439 -15.8847 -15.8246 -15.7639 -15.7025 -15.6405 -15.5782 -15.5155 -15.4527 -15.3899 -15.3274 -15.2656 -15.2046 -15.305 -15.2143 -15.1198 -15.1859 -15.2336 -15.1678 -15.1277 -15.0382 -15.0461 -15.0249 -15.0491 -15.0451 -15.0663 -14.973 -14.9907 -14.8042 -14.8376 -14.8763 -14.9197 -14.9671 -15.1422 -15.3568 -15.3935 -15.4491 -15.6166 -15.8004 -15.8806 -15.8507 -16.0569 -15.9742 -15.8411 -16.0276 -16.1444 -16.2048 -16.176 -16.4839 -16.7285 -16.6404 -16.6724 -16.7745 -16.8083 -16.9813 -17.3121 -17.0633 -16.675 -16.9811 -16.4528 -16.7556 -16.7969 -16.9195 -16.7817 -16.6857 -16.7139 -16.7385 -16.7596 -16.7768 -16.7902 -16.7997 -16.8052 -16.8067 -16.8043 -16.798 -16.788 -16.7745 -16.7575 -16.7374 -16.7143 -16.6885 -16.6602 -16.6298 -16.5974 -16.5633 -16.5277 -16.491 -16.4532 -16.4147 -16.3757 -16.3362 -16.2966 -16.2569 -16.2173 -16.1779 -16.1389 -16.1003 -16.0622 -16.0247 -15.9879 -15.9518 -15.9165 -15.8821 -15.8484 -15.8157 -15.7838 -15.7529 -15.7229 -15.6937 -15.6656 -15.6383 -15.612 -15.5866 -15.562 -15.5384 -15.5156 -15.4937 -15.4727 -15.4524 -15.433 -15.4143 -15.3964 -15.3793 -15.3629 -15.3472 -15.3321 -15.3178 -15.3041 -15.291 -15.2785 -15.2666 -15.2553 -15.2445 -15.2343 -15.2246 -15.2153 -15.2066 -15.1983 -15.1904 -15.183 -15.176 -15.1694 -15.1631 -15.1573 -15.1517 -15.1466 -15.1417 -15.1372 -15.1329 -15.129 -15.1253 -15.1219 -15.1187 -15.1158 -15.1131 -15.1106 -15.1084 -15.1063 -15.1044 -15.1027 -15.1012 -15.0998 -15.0986 -15.0976 -15.0966 -15.0958 -15.0952
-25.8431 -27.0426 -27.9936 -27.6531 -27.6812 -28.61 -28.6461 -28.6451 -27.6926 -27.3627 -28.2967 -28.4319 -28.4603 -28.6607 -28.6371 -27.8306 -27.669 -28.1472 -26.1087 -25.221 -25.4481 -25.0795 -24.1164 -24.0624 -23.6617 -24.4477 -23.8439 -23.9816 -24.0034 -23.3617 -22.273 -21.816 -22.3351 -21.5985 -20.5404 -19.8904 -19.5365 -19.7908 -19.553 -19.2385 -19.5159 -19.3461 -19.4096 -18.5884 -18.3121 -18.2207 -18.4441 -19.3268 -18.6907 -18.4 -18.7271 -18.2948 -18.1322 -18.1732 -17.7667 -17.4515 -17.5808 -17.9151 -17.7419 -17.5334 -17.4639 -17.4352 -17.3345 -17.1977 -17.1 -17.0696 -17.0555 -16.8416 -16.894 -16.9043 -16.8054 -16.7121 -16.7372 -16.7321 -16.7274 -16.7575 -16.6663 -16.6943 -16.5913 -16.59 -16.5913 -16.5785 -16.5251 -16.4762 -16.5169 -16.5243 -16.5338 -16.5231 -16.5894 -16.4927 -16.6145 -16.5207 -16.6073 -16.6067 -16.6253 -16.5029 -16.6692 -16.6885 -16.7131 -16.7358 -16.8144 -16.8229 -16.869 -16.9542 -16.9295 -16.9945 -16.9895 -17.0584 -17.0902 -17.0872 -17.05 -17.0785 -17.2209 -17.2197 -17.3072 -17.32 -17.3494 -17.4663 -17.422 -17.3777 -17.4211 -17.5169 -17.4238 -17.4941 -17.4889 -17.4977 -17.5192 -17.4862 -17.4822 -17.459 -17.4669 -17.401 -17.385 -17.3663 -17.3805 -17.3217 -17.2951 -17.2673 -17.2376 -17.2064 -17.1738 -17.1399 -17.1049 -17.0688 -17.0317 -16.9938 -16.9549 -16.9153 -16.8749 -16.8337 -16.7918 -16.7492 -16.7058 -16.6617 -16.6168 -16.5712 -16.5247 -16.4775 -16.4295 -16.3806 -16.3309 -16.2803 -16.2289 -16.1766 -16.1235 -16.0694 -16.0145 -15.9588 -15.9022 -15.8449 -15.7868 -15.728 -15.6686 -15.6087 -15.5484 -15.4878 -15.4271 -15.3664 -15.3059 -15.246 -15.1868 -15.1287 -15.072 -15.0173 -15.1046 -15.0565 -15.0461 -15.078 -14.9501 -14.9759 -14.9823 -14.9821 -14.832 -14.8844 -14.9223 -14.7188 -14.7381 -14.7641 -14.796 -14.8333 -14.8753 -14.9214 -14.9708 -15.0233 -15.3628 -15.4737 -15.566 -15.68 -15.7775 -15.7692 -15.8304 -15.9122 -15.8843 -15.8239 -15.886 -15.9835 -16.1861 -16.3692 -16.4231 -16.7706 -16.5447 -16.5972 -16.9806 -17.0358 -17.2995 -17.2527 -16.9549 -17.1117 -17.0188 -16.771 -16.741 -16.8214 -16.9505 -16.6993 -16.7301 -16.7573 -16.7805 -16.7996 -16.8146 -16.8254 -16.8318 -16.8338 -16.8316 -16.8253 -16.8149 -16.8006 -16.7826 -16.7612 -16.7366 -16.7092 -16.6791 -16.6467 -16.6122 -16.576 -16.5383 -16.4994 -16.4595 -16.4189 -16.3777 -16.3361 -16.2945 -16.2528 -16.2113 -16.17 -16.1292 -16.0889 -16.0492 -16.0102 -15.9719 -15.9344 -15.8978 -15.862 -15.8272 -15.7933 -15.7604 -15.7285 -15.6975 -15.6676 -15.6386 -15.6105 -15.5835 -15.5574 -15.5323 -15.508 -15.4847 -15.4623 -15.4408 -15.4201 -15.4003 -15.3813 -15.363 -15.3456 -15.3289 -15.3129 -15.2976 -15.283 -15.2691 -15.2558 -15.2432 -15.2311 -15.2196 -15.2087 -15.1983 -15.1885 -15.1791 -15.1703 -15.1619 -15.1539 -15.1464 -15.1393 -15.1326 -15.1263 -15.1203 -15.1148 -15.1095 -15.1046 -15.1 -15.0957 -15.0917 -15.0879 -15.0844 -15.0812 -15.0782 -15.0755 -15.0729 -15.0706 -15.0685 -15.0665 -15.0648 -15.0632 -15.0617 -15.0605 -15.0593 -15.0583 -15.0575 -15.0568
-26.9464 -27.4516 -28.4303 -27.3603 -27.17 -27.6155 -28.1833 -27.6137 -26.9394 -27.5078 -28.0177 -27.9609 -28.0905 -27.8305 -28.3763 -28.1499 -26.753 -26.5306 -27.2178 -25.7615 -26.0782 -25.4094 -25.8241 -24.8533 -24.1853 -23.6443 -23.053 -22.4998 -22.2428 -21.7818 -21.7092 -22.4361 -21.7534 -20.5325 -19.7899 -19.9966 -19.6862 -19.0851 -19.2794 -19.9218 -19.763 -19.648 -19.0783 -18.8828 -18.7666 -18.311 -18.8449 -18.045 -18.5447 -18.5262 -18.6232 -18.7221 -18.5154 -17.9357 -17.4586 -17.383 -17.3681 -17.5687 -17.5248 -17.4082 -17.3061 -17.225 -17.1412 -16.9869 -16.9583 -16.9109 -16.8645 -16.7654 -16.7931 -16.7695 -16.6866 -16.6364 -16.6199 -16.7401 -16.6107 -16.6425 -16.5679 -16.5458 -16.5284 -16.5298 -16.4594 -16.4774 -16.4106 -16.4151 -16.4563 -16.4631 -16.4705 -16.4803 -16.4383 -16.4312 -16.5143 -16.5478 -16.5441 -16.5788 -16.5758 -16.4909 -16.4933 -16.6217 -16.6269 -16.6691 -16.7259 -16.8619 -16.7778 -16.86 -16.8013 -16.8474 -16.9002 -16.9073 -16.938 -17.0231 -17.0522 -17.0672 -17.0299 -17.1124 -17.1773 -17.1154 -17.2537 -17.2618 -17.3989 -17.3677 -17.3875 -17.2999 -17.3319 -17.3467 -17.3589 -17.3674 -17.4044 -17.3702 -17.368 -17.315 -17.4367 -17.3204 -17.2353 -17.2529 -17.2679 -17.2448 -17.185 -17.1573 -17.1286 -17.0982 -17.0665 -17.0334 -16.9991 -16.9637 -16.9273 -16.8899 -16.8516 -16.8126 -16.7727 -16.732 -16.6905 -16.6483 -16.6054 -16.5617 -16.5172 -16.472 -16.426 -16.3793 -16.3317 -16.2834 -16.2343 -16.1843 -16.1336 -16.082 -16.0296 -15.9764 -15.9224 -15.8677 -15.8122 -15.7561 -15.6993 -15.6419 -15.5841 -15.5259 -15.4673 -15.4087 -15.35 -15.2916 -15.2336 -15.1762 -15.1198 -15.0647 -15.0111 -14.9597 -14.9107 -15.0243 -14.949 -14.8741 -14.9791 -14.9017 -14.8244 -14.8638 -14.8 -14.8325 -14.6787 -14.6907 -14.7095 -14.7345 -14.7653 -14.8013 -14.8419 -14.8867 -14.935 -14.9864 -15.0405 -15.0968 -15.4585 -15.6432 -15.5811 -15.6561 -15.7025 -15.8383 -15.9023 -15.8972 -15.7818 -16.0068 -16.1093 -16.2465 -16.4443 -16.8282 -16.4894 -16.8153 -16.8947 -17.024 -17.2432 -17.1702 -17.001 -17.0897 -17.2003 -16.7514 -16.7764 -16.89 -17.0035 -16.7199 -16.7535 -16.7831 -16.8085 -16.8296 -16.8462 -16.8582 -16.8655 -16.868 -16.866 -16.8594 -16.8484 -16.8332 -16.814 -16.7912 -16.7649 -16.7356 -16.7035 -16.669 -16.6323 -16.5938 -16.5538 -16.5126 -16.4704 -16.4275 -16.3841 -16.3404 -16.2966 -16.2529 -16.2095 -16.1664 -16.1238 -16.0818 -16.0404 -15.9999 -15.9601 -15.9213 -15.8833 -15.8464 -15.8104 -15.7755 -15.7415 -15.7086 -15.6768 -15.646 -15.6162 -15.5875 -15.5598 -15.5331 -15.5073 -15.4826 -15.4588 -15.4359 -15.414 -15.3929 -15.3727 -15.3534 -15.3348 -15.3171 -15.3001 -15.2839 -15.2684 -15.2536 -15.2395 -15.2261 -15.2133 -15.2011 -15.1895 -15.1784 -15.1679 -15.158 -15.1485 -15.1396 -15.1311 -15.1231 -15.1155 -15.1083 -15.1015 -15.0952 -15.0892 -15.0835 -15.0782 -15.0732 -15.0686 -15.0642 -15.0601 -15.0563 -15.0528 -15.0495 -15.0465 -15.0437 -15.0411 -15.0387 -15.0365 -15.0345 -15.0327 -15.0311 -15.0296 -15.0283 -15.0271 -15.026 -15.0251 -15.0243
-25.7958 -26.6628 -27.2681 -26.9455 -26.1401 -26.8271 -26.9096 -26.8091 -26.2811 -26.9313 -27.5782 -26.0919 -27.6516 -27.5486 -27.2591 -28.1526 -26.9542 -24.6309 -24.109 -24.8544 -23.9352 -24.205 -26.1129 -25.85 -24.154 -24.3552 -23.2741 -23.4355 -23.0166 -23.5106 -21.9322 -21.5626 -20.713 -20.1037 -19.5415 -19.2275 -19.4775 -19.1217 -18.8204 -19.6844 -19.4434 -19.0398 -18.8799 -18.6077 -18.596 -19.0602 -18.8243 -18.3199 -17.8307 -18.4499 -18.0726 -18.5868 -18.167 -18.0295 -17.754 -17.4508 -17.2106 -17.4311 -17.3507 -17.2697 -17.169 -17.0698 -17.0559 -16.8675 -16.7872 -16.6869 -16.7291 -16.6306 -16.5501 -16.5971 -16.5537 -16.3924 -16.3797 -16.5389 -16.4956 -16.5096 -16.5074 -16.3977 -16.4155 -16.3972 -16.3626 -16.3472 -16.3505 -16.355 -16.3606 -16.3861 -16.3933 -16.3668 -16.4123 -16.459 -16.4715 -16.4856 -16.4828 -16.4993 -16.4996 -16.551 -16.5351 -16.5527 -16.4701 -16.6 -16.6205 -16.6663 -16.6744 -16.7377 -16.7268 -16.7366 -16.7649 -16.7936 -16.8761 -16.9057 -17.0061 -16.9834 -16.9909 -17.0219 -17.0858 -17.1328 -17.1751 -17.1477 -17.1884 -17.2275 -17.2817 -17.1764 -17.2445 -17.2038 -17.2118 -17.2182 -17.2037 -17.2352 -17.2529 -17.2373 -17.1682 -17.1552 -17.1766 -17.1592 -17.1572 -17.0995 -17.0932 -17.0493 -17.0214 -16.992 -16.9611 -16.9288 -16.8953 -16.8607 -16.825 -16.7883 -16.7508 -16.7123 -16.673 -16.6329 -16.592 -16.5504 -16.508 -16.4648 -16.4209 -16.3763 -16.3309 -16.2847 -16.2378 -16.1901 -16.1417 -16.0925 -16.0425 -15.9918 -15.9403 -15.8881 -15.8352 -15.7816 -15.7274 -15.6725 -15.6172 -15.5614 -15.5052 -15.4488 -15.3922 -15.3356 -15.2791 -15.2231 -15.1676 -15.1129 -15.0593 -15.0071 -14.9567 -14.9085 -14.8628 -14.8203 -14.9076 -14.7305 -14.7035 -14.6387 -14.6626 -14.8355 -14.6502 -14.6494 -14.655 -14.6671 -14.6855 -14.7097 -14.7395 -14.7743 -14.8137 -14.8573 -14.9044 -14.9548 -15.008 -15.0636 -15.3527 -15.4306 -15.5448 -15.6235 -15.5824 -15.7343 -15.7996 -15.832 -15.8227 -16.0687 -16.0641 -16.2146 -16.3538 -16.6035 -16.8243 -16.7771 -16.9527 -17.066 -17.1456 -17.0512 -17.2154 -17.0419 -17.0318 -16.8505 -16.5394 -16.8691 -17.0413 -16.9726 -16.7788 -16.811 -16.8387 -16.8618 -16.88 -16.8932 -16.9013 -16.9043 -16.9023 -16.8953 -16.8835 -16.8672 -16.8467 -16.8222 -16.794 -16.7626 -16.7283 -16.6915 -16.6524 -16.6115 -16.5691 -16.5254 -16.4808 -16.4356 -16.3899 -16.344 -16.2981 -16.2524 -16.2069 -16.162 -16.1176 -16.0739 -16.031 -15.9889 -15.9477 -15.9075 -15.8683 -15.8302 -15.7931 -15.7572 -15.7223 -15.6885 -15.6558 -15.6242 -15.5937 -15.5643 -15.536 -15.5087 -15.4825 -15.4572 -15.433 -15.4097 -15.3874 -15.366 -15.3455 -15.3258 -15.307 -15.289 -15.2719 -15.2554 -15.2398 -15.2248 -15.2106 -15.197 -15.184 -15.1717 -15.16 -15.1489 -15.1383 -15.1283 -15.1187 -15.1097 -15.1012 -15.0931 -15.0855 -15.0782 -15.0714 -15.065 -15.059 -15.0533 -15.0479 -15.0429 -15.0382 -15.0338 -15.0297 -15.0259 -15.0223 -15.019 -15.0159 -15.0131 -15.0104 -15.008 -15.0058 -15.0037 -15.0019 -15.0002 -14.9987 -14.9973 -14.9961 -14.995 -14.994 -14.9932
-25.8593 -26.3535 -26.1064 -26.1905 -26.4268 -27.2916 -27.0086 -25.897 -24.1014 -25.227 -27.0949 -26.428 -26.021 -26.3526 -24.588 -27.073 -26.9131 -25.7225 -24.7235 -23.7021 -23.0041 -22.9914 -23.9445 -25.9032 -24.5675 -23.6845 -23.4141 -22.8982 -22.3326 -21.887 -21.6245 -20.2052 -19.9963 -19.9529 -19.3552 -18.8671 -18.9219 -18.7597 -18.8306 -18.9091 -18.929 -18.8076 -18.5927 -18.5912 -18.8506 -18.294 -18.3465 -18.6182 -18.4398 -17.923 -17.624 -17.7971 -17.788 -17.6714 -17.467 -17.2781 -17.1271 -17.0761 -17.2097 -17.0745 -16.9731 -16.8737 -16.8455 -16.764 -16.6836 -16.6008 -16.4027 -16.5219 -16.3245 -16.3167 -16.3096 -16.3031 -16.2974 -16.3809 -16.3959 -16.3929 -16.3718 -16.3174 -16.3159 -16.3162 -16.3354 -16.2843 -16.2877 -16.2921 -16.2976 -16.3042 -16.3119 -16.3207 -16.3306 -16.3416 -16.3537 -16.3669 -16.3813 -16.3789 -16.413 -16.4674 -16.4497 -16.487 -16.4352 -16.4576 -16.5295 -16.5744 -16.5301 -16.6066 -16.6323 -16.6585 -16.6852 -16.7123 -16.7398 -16.7673 -16.7786 -16.8597 -16.9215 -16.9813 -16.571 -16.9277 -17.0756 -17.118 -17.1381 -17.1574 -17.1402 -17.1043 -17.1168 -17.0917 -17.0997 -17.0873 -17.0899 -17.126 -17.0851 -17.1167 -17.0534 -17.0571 -17.0805 -17.0284 -17.0093 -16.988 -16.9647 -16.9394 -16.9125 -16.8839 -16.8539 -16.8225 -16.7899 -16.7561 -16.7212 -16.6853 -16.6484 -16.6107 -16.5721 -16.5327 -16.4925 -16.4515 -16.4097 -16.3672 -16.324 -16.28 -16.2353 -16.1899 -16.1437 -16.0968 -16.0492 -16.0008 -15.9518 -15.902 -15.8516 -15.8004 -15.7487 -15.6964 -15.6435 -15.5901 -15.5363 -15.4821 -15.4277 -15.3731 -15.3186 -15.2641 -15.2099 -15.1563 -15.1033 -15.0513 -15.0006 -14.9513 -14.904 -14.8589 -14.8165 -14.8305 -14.848 -14.7094 -14.682 -14.6594 -14.6421 -14.6305 -14.6246 -14.6248 -14.631 -14.6432 -14.6613 -14.6849 -14.7138 -14.7476 -14.7859 -14.8282 -14.8743 -14.9236 -14.9759 -15.0307 -15.0878 -15.3605 -15.5119 -15.5718 -15.7414 -15.7001 -15.7144 -15.6746 -15.9166 -16.0357 -16.1743 -16.2804 -16.3142 -16.6783 -16.8756 -16.9266 -16.7015 -16.9784 -17.2072 -17.0197 -16.9345 -17.0503 -16.7669 -16.5741 -16.5775 -16.8688 -17.0734 -16.9582 -16.8017 -16.8366 -16.8667 -16.8918 -16.9117 -16.9261 -16.935 -16.9384 -16.9362 -16.9287 -16.916 -16.8984 -16.8763 -16.8499 -16.8196 -16.7859 -16.7492 -16.7098 -16.6682 -16.6247 -16.5797 -16.5335 -16.4864 -16.4388 -16.3908 -16.3426 -16.2946 -16.2468 -16.1994 -16.1526 -16.1064 -16.0611 -16.0166 -15.973 -15.9305 -15.889 -15.8486 -15.8094 -15.7713 -15.7343 -15.6985 -15.6639 -15.6305 -15.5982 -15.567 -15.537 -15.5081 -15.4803 -15.4536 -15.428 -15.4033 -15.3797 -15.357 -15.3353 -15.3145 -15.2946 -15.2756 -15.2574 -15.2401 -15.2235 -15.2077 -15.1926 -15.1782 -15.1645 -15.1515 -15.1391 -15.1273 -15.1161 -15.1055 -15.0954 -15.0858 -15.0768 -15.0682 -15.0601 -15.0524 -15.0451 -15.0383 -15.0318 -15.0258 -15.0201 -15.0147 -15.0097 -15.0049 -15.0005 -14.9964 -14.9925 -14.9889 -14.9856 -14.9825 -14.9796 -14.9769 -14.9745 -14.9722 -14.9702 -14.9683 -14.9665 -14.965 -14.9636 -14.9623 -14.9612 -14.9602 -14.9593
-24.1544 -24.2114 -25.1083 -25.4319 -24.9502 -25.6288 -25.7434 -26.4141 -24.5947 -24.162 -26.0459 -25.8834 -25.7245 -26.2322 -23.645 -24.1913 -25.2076 -24.0659 -25.0254 -23.7247 -23.9507 -22.234 -23.929 -23.5569 -23.5731 -23.327 -22.4334 -21.7931 -21.6081 -21.3741 -20.5437 -20.193 -19.5052 -19.5725 -19.3771 -19.5587 -18.8425 -18.4782 -18.6541 -19.0767 -18.5947 -18.2554 -18.1631 -19.1122 -18.9525 -18.5031 -18.1174 -18.2849 -18.5125 -17.9944 -17.7551 -17.3407 -17.5795 -17.3735 -17.2575 -17.1747 -17.0944 -17.0614 -16.916 -16.9197 -16.8031 -16.8271 -16.7657 -16.7018 -16.5829 -16.5738 -16.5298 -16.4335 -16.3889 -16.257 -16.2502 -16.244 -16.2386 -16.2339 -16.2661 -16.2629 -16.2605 -16.2588 -16.2761 -16.2231 -16.2245 -16.2269 -16.2303 -16.2346 -16.24 -16.2464 -16.2539 -16.2624 -16.272 -16.2827 -16.2944 -16.3072 -16.321 -16.3358 -16.3517 -16.3686 -16.4399 -16.4399 -16.4602 -16.464 -16.5015 -16.5074 -16.3497 -16.554 -16.5605 -16.5853 -16.6106 -16.6361 -16.6619 -16.6878 -16.7136 -16.7927 -16.8326 -16.8267 -16.8882 -16.9079 -17.0202 -16.9882 -16.9884 -17.0242 -16.9886 -16.9834 -16.9778 -17.0394 -16.9964 -16.9984 -17.0008 -16.9821 -16.9781 -16.9553 -16.9968 -16.9691 -16.9383 -16.9221 -16.9037 -16.8831 -16.8606 -16.8362 -16.8101 -16.7824 -16.7533 -16.7228 -16.691 -16.6581 -16.624 -16.589 -16.5529 -16.516 -16.4782 -16.4395 -16.4001 -16.3598 -16.3188 -16.2771 -16.2346 -16.1914 -16.1475 -16.1028 -16.0575 -16.0115 -15.9648 -15.9174 -15.8693 -15.8206 -15.7713 -15.7214 -15.6709 -15.6199 -15.5684 -15.5166 -15.4644 -15.412 -15.3594 -15.3068 -15.2543 -15.202 -15.1502 -15.0989 -15.0485 -14.9992 -14.9512 -14.9049 -14.8605 -14.8184 -14.779 -14.7426 -14.7097 -14.6807 -14.6559 -14.6358 -14.6206 -14.6107 -14.6062 -14.6074 -14.6141 -14.6265 -14.6444 -14.6675 -14.6956 -14.7285 -14.7657 -14.807 -14.8519 -14.9002 -14.9515 -15.0056 -15.062 -15.1206 -15.3946 -15.4584 -15.7336 -15.7848 -15.6526 -15.5958 -15.7824 -15.9611 -16.1529 -16.205 -16.344 -16.4549 -16.3204 -16.6836 -16.5002 -16.888 -17.0627 -17.0582 -17.0576 -17.0199 -16.9974 -16.5747 -16.9045 -16.8864 -17.0603 -17.0203 -16.8833 -16.8676 -16.9002 -16.9274 -16.949 -16.9647 -16.9744 -16.978 -16.9756 -16.9674 -16.9536 -16.9345 -16.9105 -16.8819 -16.8493 -16.8131 -16.7737 -16.7316 -16.6873 -16.6411 -16.5934 -16.5446 -16.4949 -16.4448 -16.3944 -16.344 -16.2938 -16.2439 -16.1946 -16.146 -16.0981 -16.0512 -16.0052 -15.9602 -15.9164 -15.8737 -15.8322 -15.7919 -15.7528 -15.715 -15.6783 -15.643 -15.6088 -15.5759 -15.5441 -15.5136 -15.4842 -15.456 -15.4288 -15.4028 -15.3778 -15.3539 -15.331 -15.309 -15.288 -15.2679 -15.2487 -15.2304 -15.2129 -15.1962 -15.1803 -15.1651 -15.1506 -15.1369 -15.1238 -15.1113 -15.0995 -15.0883 -15.0776 -15.0675 -15.0579 -15.0488 -15.0402 -15.0321 -15.0244 -15.0171 -15.0103 -15.0038 -14.9977 -14.992 -14.9866 -14.9816 -14.9769 -14.9724 -14.9683 -14.9644 -14.9608 -14.9575 -14.9543 -14.9514 -14.9488 -14.9463 -14.944 -14.9419 -14.94 -14.9383 -14.9367 -14.9352 -14.9339 -14.9328 -14.9317 -14.9308
-23.0519 -22.8779 -23.4316 -25.0391 -24.5174 -24.1759 -24.9633 -24.5145 -23.3659 -23.9827 -25.1062 -25.2126 -23.6629 -25.9614 -23.5795 -24.2429 -23.5626 -23.4956 -23.012 -23.0423 -23.0878 -22.2006 -22.9436 -22.849 -21.9073 -21.2302 -21.1089 -20.5309 -20.6444 -20.6718 -20.0058 -19.6407 -19.5019 -19.1181 -19.0813 -18.6992 -18.9524 -18.6579 -18.4119 -18.3485 -18.252 -17.8928 -18.6867 -18.3544 -18.0387 -18.4438 -18.1209 -17.9891 -17.9343 -17.9493 -17.6557 -17.4165 -17.246 -17.2568 -17.1767 -17.0606 -17.0319 -16.9495 -16.8866 -16.8751 -16.7573 -16.693 -16.6502 -16.6929 -16.5948 -16.5333 -16.471 -16.4118 -16.2024 -16.1988 -16.1923 -16.1865 -16.1813 -16.1769 -16.1554 -16.169 -16.1681 -16.1669 -16.1665 -16.167 -16.1684 -16.1708 -16.1741 -16.1784 -16.1836 -16.1899 -16.1971 -16.2054 -16.2146 -16.2249 -16.2362 -16.2485 -16.2618 -16.276 -16.2912 -16.3074 -16.3245 -16.3425 -16.3613 -16.381 -16.3837 -16.4404 -16.4445 -16.4669 -16.4899 -16.5133 -16.537 -16.5611 -16.5852 -16.6095 -16.6336 -16.6575 -16.7166 -16.7232 -16.774 -16.7843 -16.8397 -16.8231 -16.841 -16.8935 -16.9256 -16.9352 -17.0174 -16.9398 -16.9776 -16.8775 -16.8636 -16.8777 -16.8205 -16.885 -16.8591 -16.8625 -16.8699 -16.8186 -16.8007 -16.7809 -16.7591 -16.7355 -16.7103 -16.6835 -16.6553 -16.6257 -16.5948 -16.5627 -16.5296 -16.4954 -16.4602 -16.4241 -16.3871 -16.3493 -16.3107 -16.2712 -16.2311 -16.1902 -16.1485 -16.1062 -16.0631 -16.0194 -15.975 -15.9299 -15.8842 -15.8378 -15.7909 -15.7433 -15.6952 -15.6466 -15.5974 -15.5479 -15.4979 -15.4477 -15.3972 -15.3465 -15.2958 -15.2452 -15.1948 -15.1447 -15.0952 -15.0464 -14.9985 -14.9518 -14.9066 -14.863 -14.8214 -14.7822 -14.7456 -14.7121 -14.6819 -14.6555 -14.6332 -14.6152 -14.602 -14.5936 -14.5904 -14.5924 -14.5997 -14.6122 -14.6299 -14.6526 -14.6801 -14.7121 -14.7483 -14.7886 -14.8325 -14.8798 -14.9301 -14.9833 -15.039 -15.097 -15.3172 -15.5204 -15.5872 -15.7046 -15.7001 -15.5542 -15.7447 -15.9034 -16.0109 -16.1149 -16.242 -16.3491 -16.33 -16.4717 -16.7548 -16.6597 -16.9191 -16.8293 -16.8107 -16.7267 -16.771 -16.9678 -16.828 -16.9779 -17.0516 -17.0606 -17.0727 -16.8992 -16.9345 -16.9639 -16.9873 -17.0043 -17.0147 -17.0185 -17.0158 -17.0068 -16.9916 -16.9707 -16.9446 -16.9136 -16.8784 -16.8394 -16.7972 -16.7522 -16.705 -16.6559 -16.6054 -16.5539 -16.5017 -16.449 -16.3962 -16.3436 -16.2912 -16.2394 -16.1882 -16.1378 -16.0883 -16.0398 -15.9924 -15.9461 -15.901 -15.8572 -15.8146 -15.7734 -15.7334 -15.6947 -15.6574 -15.6213 -15.5866 -15.5531 -15.5208 -15.4898 -15.46 -15.4314 -15.4039 -15.3776 -15.3523 -15.3281 -15.305 -15.2829 -15.2617 -15.2415 -15.2221 -15.2037 -15.1861 -15.1693 -15.1533 -15.1381 -15.1236 -15.1098 -15.0967 -15.0842 -15.0724 -15.0611 -15.0505 -15.0403 -15.0308 -15.0217 -15.0131 -15.005 -14.9973 -14.99 -14.9832 -14.9768 -14.9707 -14.965 -14.9596 -14.9546 -14.9498 -14.9454 -14.9413 -14.9374 -14.9338 -14.9305 -14.9273 -14.9244 -14.9217 -14.9193 -14.917 -14.9149 -14.913 -14.9112 -14.9096 -14.9081 -14.9068 -14.9056 -14.9046 -14.9037
-22.1231 -22.1782 -22.4816 -23.1937 -23.491 -24.213 -23.9923 -23.1934 -23.6552 -23.4081 -24.3401 -24.4859 -23.4758 -23.0401 -22.4252 -22.4138 -22.2244 -21.7014 -22.0206 -21.5363 -21.7895 -21.2928 -20.7595 -21.2668 -21.2245 -20.3985 -20.2271 -20.0724 -19.9948 -19.9105 -19.6521 -19.3739 -19.2083 -19.3294 -20.0723 -19.2947 -18.8374 -18.5921 -18.1422 -17.9319 -17.9017 -17.7657 -18.9141 -18.1575 -18.0317 -17.7771 -17.8126 -17.4968 -17.8695 -17.6352 -17.4152 -17.2638 -17.0947 -17.1555 -17.0594 -16.8885 -16.8616 -16.797 -16.8235 -16.6905 -16.6259 -16.5978 -16.6043 -16.5449 -16.4991 -16.4536 -16.3939 -16.3153 -16.2884 -16.139 -16.1328 -16.1272 -16.1223 -16.118 -16.1145 -16.1118 -16.1098 -16.1087 -16.1083 -16.1089 -16.1103 -16.1126 -16.1159 -16.12 -16.1251 -16.1312 -16.1382 -16.1461 -16.1551 -16.1649 -16.1758 -16.1876 -16.2003 -16.2139 -16.2285 -16.2439 -16.2602 -16.2774 -16.2953 -16.314 -16.3334 -16.3534 -16.3741 -16.3953 -16.417 -16.439 -16.4613 -16.4839 -16.5065 -16.5291 -16.5516 -16.5739 -16.5957 -16.617 -16.6732 -16.6751 -16.6939 -16.7289 -16.7638 -16.7778 -16.8451 -16.7668 -16.8137 -16.7839 -16.8075 -16.8107 -16.7923 -16.7551 -16.7689 -16.7625 -16.7539 -16.7602 -16.7482 -16.7502 -16.6973 -16.6781 -16.6571 -16.6343 -16.6099 -16.584 -16.5566 -16.5279 -16.4979 -16.4668 -16.4345 -16.4012 -16.367 -16.3317 -16.2956 -16.2587 -16.221 -16.1824 -16.1431 -16.1031 -16.0624 -16.0209 -15.9788 -15.9361 -15.8927 -15.8486 -15.804 -15.7587 -15.7129 -15.6666 -15.6198 -15.5725 -15.5248 -15.4767 -15.4283 -15.3797 -15.3309 -15.2821 -15.2333 -15.1847 -15.1364 -15.0885 -15.0413 -14.9949 -14.9495 -14.9053 -14.8627 -14.8218 -14.7829 -14.7464 -14.7125 -14.6816 -14.6539 -14.6299 -14.6097 -14.5938 -14.5822 -14.5753 -14.5732 -14.576 -14.5838 -14.5965 -14.614 -14.6363 -14.6632 -14.6944 -14.7298 -14.7691 -14.812 -14.8582 -14.9076 -14.9599 -15.0148 -15.0721 -15.1316 -15.1931 -15.5082 -15.6053 -15.6713 -15.6004 -15.668 -15.8101 -15.8993 -16.1615 -16.3117 -16.2597 -16.4196 -16.9641 -16.6311 -16.5695 -16.735 -16.8442 -17.2683 -16.9446 -16.7258 -17.1169 -16.9271 -16.9203 -16.9597 -17.0852 -17.0632 -17.0165 -16.9656 -16.9974 -17.0227 -17.041 -17.0522 -17.0561 -17.0529 -17.0428 -17.026 -17.0031 -16.9746 -16.941 -16.9029 -16.8609 -16.8156 -16.7676 -16.7173 -16.6652 -16.6119 -16.5576 -16.5027 -16.4476 -16.3925 -16.3376 -16.2831 -16.2293 -16.1763 -16.1242 -16.0732 -16.0232 -15.9745 -15.927 -15.8808 -15.8359 -15.7924 -15.7503 -15.7095 -15.6702 -15.6322 -15.5955 -15.5602 -15.5262 -15.4936 -15.4622 -15.432 -15.4031 -15.3754 -15.3488 -15.3233 -15.299 -15.2757 -15.2534 -15.2321 -15.2118 -15.1924 -15.1739 -15.1563 -15.1395 -15.1235 -15.1082 -15.0937 -15.0799 -15.0668 -15.0544 -15.0425 -15.0313 -15.0207 -15.0106 -15.001 -14.992 -14.9834 -14.9753 -14.9677 -14.9605 -14.9537 -14.9473 -14.9412 -14.9356 -14.9302 -14.9252 -14.9205 -14.9161 -14.912 -14.9081 -14.9045 -14.9012 -14.8981 -14.8952 -14.8925 -14.89 -14.8877 -14.8856 -14.8837 -14.8819 -14.8803 -14.8789 -14.8776 -14.8764 -14.8753 -14.8743
-21.4318 -21.7032 -21.8996 -21.99 -22.7343 -23.1593 -23.4625 -22.8666 -22.3948 -22.0359 -22.8295 -22.6623 -21.8953 -21.5924 -21.502 -21.358 -21.4688 -21.4798 -21.3757 -20.8592 -20.5599 -21.5227 -20.4745 -20.602 -20.1024 -20.3268 -19.7844 -19.635 -19.5164 -19.2755 -19.0703 -18.871 -19.2246 -19.5769 -19.3113 -18.6391 -18.2002 -18.2993 -17.9305 -17.7698 -17.9357 -17.562 -18.4446 -18.0995 -17.702 -17.5707 -17.4803 -17.5186 -17.4556 -17.3616 -17.1762 -17.0765 -17.07 -16.953 -16.8928 -16.8109 -16.7317 -16.736 -16.6771 -16.6308 -16.533 -16.4894 -16.4776 -16.4356 -16.3537 -16.328 -16.3559 -16.3119 -16.2509 -16.1914 -16.0785 -16.0731 -16.0684 -16.0643 -16.061 -16.0584 -16.0565 -16.0555 -16.0552 -16.0558 -16.0572 -16.0595 -16.0626 -16.0666 -16.0715 -16.0774 -16.0841 -16.0918 -16.1003 -16.1098 -16.1202 -16.1315 -16.1436 -16.1567 -16.1705 -16.1852 -16.2008 -16.217 -16.2341 -16.2518 -16.2701 -16.2891 -16.3086 -16.3286 -16.349 -16.3697 -16.3906 -16.4117 -16.4329 -16.454 -16.4749 -16.4955 -16.5157 -16.5354 -16.5544 -16.5903 -16.6074 -16.6233 -16.6209 -16.6358 -16.68 -16.6701 -16.6288 -16.6878 -16.6919 -16.6932 -16.659 -16.6572 -16.6528 -16.6641 -16.6555 -16.6448 -16.6145 -16.59 -16.5829 -16.5108 -16.5616 -16.5396 -16.516 -16.4909 -16.4644 -16.4366 -16.4075 -16.3773 -16.346 -16.3136 -16.2802 -16.2459 -16.2108 -16.1747 -16.1379 -16.1003 -16.062 -16.0229 -15.9831 -15.9427 -15.9016 -15.8598 -15.8175 -15.7745 -15.731 -15.687 -15.6424 -15.5973 -15.5518 -15.5059 -15.4597 -15.4131 -15.3663 -15.3194 -15.2723 -15.2254 -15.1785 -15.1319 -15.0857 -15.04 -14.995 -14.951 -14.908 -14.8663 -14.8261 -14.7877 -14.7514 -14.7174 -14.686 -14.6575 -14.6322 -14.6103 -14.5922 -14.578 -14.568 -14.5624 -14.5613 -14.5649 -14.573 -14.5859 -14.6033 -14.6252 -14.6515 -14.682 -14.7165 -14.7549 -14.7968 -14.842 -14.8905 -14.9418 -14.9958 -15.0524 -15.1113 -15.1723 -15.2353 -15.5162 -15.7574 -15.7531 -15.6643 -15.7351 -15.8234 -16.0217 -16.2897 -16.3112 -16.5547 -16.6583 -16.7784 -16.6489 -16.7236 -16.7642 -17.1363 -16.8685 -17.026 -16.5735 -16.8915 -16.7194 -17.0491 -17.0358 -17.1423 -17.2453 -16.9997 -17.0341 -17.0614 -17.0811 -17.0931 -17.0971 -17.0932 -17.0818 -17.0632 -17.038 -17.0067 -16.9701 -16.9289 -16.8837 -16.8351 -16.7839 -16.7305 -16.6754 -16.6191 -16.562 -16.5046 -16.447 -16.3895 -16.3325 -16.2761 -16.2204 -16.1657 -16.112 -16.0595 -16.0082 -15.9583 -15.9097 -15.8625 -15.8167 -15.7723 -15.7295 -15.688 -15.648 -15.6095 -15.5724 -15.5366 -15.5023 -15.4693 -15.4376 -15.4072 -15.378 -15.3501 -15.3234 -15.2978 -15.2733 -15.25 -15.2276 -15.2063 -15.186 -15.1665 -15.148 -15.1304 -15.1136 -15.0976 -15.0824 -15.068 -15.0542 -15.0412 -15.0288 -15.017 -15.0058 -14.9952 -14.9852 -14.9757 -14.9667 -14.9582 -14.9502 -14.9426 -14.9355 -14.9287 -14.9223 -14.9164 -14.9107 -14.9054 -14.9005 -14.8958 -14.8914 -14.8873 -14.8835 -14.88 -14.8766 -14.8736 -14.8707 -14.868 -14.8656 -14.8633 -14.8612 -14.8593 -14.8575 -14.8559 -14.8544 -14.8531 -14.8519 -14.8508 -14.8499
-20.8225 -21.2143 -21.3386 -21.5071 -21.762 -21.7593 -22.1466 -21.7853 -21.4507 -21.4549 -21.3319 -21.3707 -21.3977 -21.0985 -21.0068 -20.7746 -21.1427 -20.7745 -20.9252 -20.4025 -20.2752 -20.8963 -20.6667 -20.0327 -19.7343 -19.2482 -19.272 -19.1835 -19.2354 -18.8412 -19.8897 -19.9197 -18.5659 -18.812 -18.8757 -18.3585 -17.9665 -17.8565 -17.6629 -17.6198 -18.0259 -17.893 -18.2402 -17.992 -17.5231 -17.5914 -17.1757 -17.3393 -17.1484 -17.0721 -17.0847 -16.914 -16.9225 -16.8631 -16.8 -16.7556 -16.7448 -16.5772 -16.5656 -16.5209 -16.4789 -16.4352 -16.3172 -16.3961 -16.2462 -16.2202 -16.1944 -16.1529 -16.1477 -16.0681 -16.0258 -16.0207 -16.0162 -16.0123 -16.0091 -16.0066 -16.0048 -16.0038 -16.0036 -16.0042 -16.0055 -16.0077 -16.0107 -16.0146 -16.0194 -16.025 -16.0314 -16.0387 -16.0469 -16.056 -16.0659 -16.0767 -16.0883 -16.1007 -16.1139 -16.1279 -16.1426 -16.158 -16.1741 -16.1909 -16.2083 -16.2261 -16.2445 -16.2633 -16.2824 -16.3019 -16.3215 -16.3412 -16.3609 -16.3805 -16.4 -16.4191 -16.4378 -16.4737 -16.5094 -16.4899 -16.5061 -16.5023 -16.5338 -16.5459 -16.5396 -16.5309 -16.5547 -16.5776 -16.5811 -16.6005 -16.5996 -16.5626 -16.5577 -16.569 -16.5605 -16.55 -16.5375 -16.5045 -16.4972 -16.4809 -16.2713 -15.779 -16.3137 -16.4008 -16.3752 -16.3483 -16.3201 -16.2908 -16.2604 -16.2289 -16.1965 -16.1632 -16.1289 -16.0939 -16.058 -16.0214 -15.984 -15.9459 -15.9072 -15.8678 -15.8277 -15.7871 -15.7458 -15.704 -15.6617 -15.6188 -15.5755 -15.5318 -15.4876 -15.4431 -15.3984 -15.3534 -15.3082 -15.2629 -15.2177 -15.1725 -15.1276 -15.083 -15.0388 -14.9953 -14.9525 -14.9107 -14.87 -14.8307 -14.7929 -14.7569 -14.723 -14.6913 -14.6622 -14.636 -14.6128 -14.5929 -14.5765 -14.564 -14.5554 -14.551 -14.5508 -14.5549 -14.5634 -14.5764 -14.5937 -14.6153 -14.641 -14.6708 -14.7045 -14.7419 -14.7828 -14.8271 -14.8745 -14.9249 -14.9781 -15.0338 -15.092 -15.1524 -15.215 -15.2795 -15.5925 -15.7167 -15.8231 -15.6623 -15.752 -15.9312 -16.3101 -16.0799 -16.4951 -16.5733 -16.8031 -16.695 -16.6319 -16.7278 -16.841 -17.1507 -16.936 -16.5637 -16.6521 -17.0597 -17.0342 -17.0969 -17.1858 -17.1815 -17.0502 -17.0696 -17.0991 -17.1204 -17.1331 -17.1371 -17.1324 -17.1194 -17.0987 -17.0708 -17.0365 -16.9967 -16.952 -16.9034 -16.8514 -16.7968 -16.7402 -16.682 -16.6228 -16.563 -16.503 -16.443 -16.3834 -16.3243 -16.266 -16.2086 -16.1523 -16.0972 -16.0434 -15.9909 -15.9399 -15.8903 -15.8422 -15.7957 -15.7506 -15.7071 -15.6652 -15.6247 -15.5857 -15.5482 -15.5121 -15.4775 -15.4443 -15.4124 -15.3818 -15.3526 -15.3245 -15.2977 -15.2721 -15.2476 -15.2242 -15.2019 -15.1806 -15.1603 -15.1409 -15.1224 -15.1049 -15.0882 -15.0722 -15.0571 -15.0427 -15.0291 -15.0161 -15.0038 -14.9921 -14.981 -14.9705 -14.9606 -14.9512 -14.9423 -14.9339 -14.9259 -14.9184 -14.9114 -14.9047 -14.8984 -14.8925 -14.8869 -14.8817 -14.8768 -14.8722 -14.8678 -14.8638 -14.86 -14.8565 -14.8532 -14.8502 -14.8473 -14.8447 -14.8423 -14.84 -14.838 -14.836 -14.8343 -14.8327 -14.8312 -14.8299 -14.8287 -14.8277 -14.8267
-20.6858 -20.9599 -21.107 -21.1451 -21.1698 -21.1363 -21.5649 -22.3164 -21.1423 -21.1484 -20.7616 -20.6829 -20.9678 -20.5543 -20.419 -20.2249 -20.6406 -20.5797 -20.2345 -20.0817 -20.0177 -20.4232 -19.9473 -19.7869 -19.5926 -19.2468 -19.3054 -19.0364 -18.7449 -18.478 -18.6926 -19.0485 -18.697 -18.6419 -18.6321 -18.1622 -17.8091 -17.7949 -17.7039 -17.5655 -18.0114 -17.3927 -18.0207 -17.7738 -17.4524 -17.1079 -17.1005 -17.0274 -16.9676 -16.8532 -16.7765 -16.7161 -16.6879 -16.733 -16.6727 -16.6105 -16.5838 -16.5212 -16.4558 -16.4848 -16.3159 -16.3056 -16.3655 -16.2358 -16.1382 -16.1486 -16.0512 -16.0454 -15.9303 -15.9776 -15.9721 -15.9671 -15.9628 -15.959 -15.956 -15.9536 -15.9519 -15.9509 -15.9507 -15.9512 -15.9525 -15.9547 -15.9576 -15.9613 -15.9658 -15.9712 -15.9773 -15.9843 -15.9921 -16.0008 -16.0102 -16.0205 -16.0315 -16.0433 -16.0558 -16.0691 -16.083 -16.0976 -16.1128 -16.1287 -16.145 -16.1619 -16.1791 -16.1968 -16.2147 -16.2329 -16.2512 -16.2696 -16.2879 -16.3062 -16.3242 -16.3418 -16.3591 -16.3757 -16.3917 -16.3713 -16.422 -16.3989 -16.4283 -16.4393 -16.4479 -16.4566 -16.4807 -16.4853 -16.4882 -16.4892 -16.4871 -16.486 -16.481 -16.4744 -16.4659 -16.4556 -16.4434 -16.4294 -16.4137 -16.3784 -15.4292 -16.3523 -15.9526 -16.3203 -16.2863 -16.2602 -16.2329 -16.2045 -16.175 -16.1445 -16.1131 -16.0807 -16.0474 -16.0133 -15.9785 -15.9428 -15.9065 -15.8694 -15.8317 -15.7934 -15.7544 -15.7148 -15.6747 -15.6341 -15.593 -15.5514 -15.5094 -15.467 -15.4242 -15.3812 -15.3379 -15.2945 -15.2509 -15.2074 -15.1639 -15.1205 -15.0775 -15.0348 -14.9927 -14.9512 -14.9106 -14.8709 -14.8324 -14.7953 -14.7598 -14.7261 -14.6944 -14.665 -14.638 -14.6138 -14.5925 -14.5744 -14.5597 -14.5486 -14.5413 -14.5378 -14.5384 -14.5431 -14.5519 -14.5649 -14.5821 -14.6033 -14.6285 -14.6576 -14.6905 -14.727 -14.767 -14.8102 -14.8566 -14.906 -14.9582 -15.0131 -15.0704 -15.1302 -15.1921 -15.2562 -15.4823 -15.6702 -15.8 -15.8523 -15.6572 -15.9282 -16.2864 -16.2387 -16.4235 -16.5728 -16.5844 -16.6438 -16.6494 -16.7292 -16.7755 -17.1914 -16.8466 -16.8577 -16.6548 -17.1552 -17.0522 -17.1825 -17.1551 -17.19 -17.2384 -17.1001 -17.1321 -17.155 -17.1685 -17.1724 -17.1667 -17.1519 -17.1286 -17.0977 -17.0601 -17.0167 -16.9684 -16.9161 -16.8606 -16.8026 -16.7427 -16.6816 -16.6195 -16.5571 -16.4946 -16.4324 -16.3707 -16.3097 -16.2497 -16.1908 -16.1331 -16.0767 -16.0218 -15.9683 -15.9163 -15.8659 -15.8171 -15.7699 -15.7244 -15.6804 -15.638 -15.5971 -15.5579 -15.5201 -15.4839 -15.4491 -15.4157 -15.3837 -15.3531 -15.3238 -15.2958 -15.269 -15.2434 -15.2189 -15.1956 -15.1733 -15.1521 -15.1319 -15.1126 -15.0943 -15.0768 -15.0602 -15.0445 -15.0295 -15.0152 -15.0017 -14.9888 -14.9766 -14.9651 -14.9541 -14.9438 -14.934 -14.9247 -14.9159 -14.9076 -14.8998 -14.8924 -14.8854 -14.8788 -14.8726 -14.8668 -14.8613 -14.8561 -14.8513 -14.8468 -14.8425 -14.8386 -14.8348 -14.8314 -14.8282 -14.8251 -14.8224 -14.8198 -14.8174 -14.8152 -14.8131 -14.8112 -14.8095 -14.8079 -14.8065 -14.8052 -14.804 -14.8029 -14.802
-19.9433 -20.5283 -20.6453 -20.6838 -20.8111 -20.5169 -20.5732 -20.643 -20.6792 -20.3547 -20.1775 -20.6443 -20.2584 -20.2969 -19.9634 -19.8108 -19.7066 -19.8759 -19.6875 -19.419 -19.6271 -19.9341 -19.4456 -19.7879 -19.3111 -19.5031 -19.3971 -19.1023 -19.0481 -18.8702 -18.307 -18.3307 -18.493 -18.0532 -18.2893 -17.9909 -18.2104 -18.5279 -18.1809 -17.6338 -17.5328 -17.188 -17.5908 -17.6012 -17.3635 -17.0256 -16.8917 -16.8685 -16.7913 -16.6777 -16.5833 -16.6091 -16.5658 -16.5934 -16.5305 -16.4686 -16.5117 -16.432 -16.3895 -16.2896 -16.2655 -16.237 -16.1746 -16.1517 -16.0527 -16.0078 -16.0026 -15.9051 -15.9343 -15.9284 -15.9231 -15.9183 -15.9141 -15.9104 -15.9075 -15.9052 -15.9035 -15.9026 -15.9024 -15.9029 -15.9041 -15.9061 -15.9089 -15.9124 -15.9167 -15.9218 -15.9277 -15.9344 -15.9418 -15.95 -15.959 -15.9687 -15.9791 -15.9903 -16.0022 -16.0147 -16.0279 -16.0417 -16.056 -16.0709 -16.0863 -16.1021 -16.1184 -16.1349 -16.1517 -16.1686 -16.1857 -16.2028 -16.2199 -16.2368 -16.2534 -16.2697 -16.2856 -16.3009 -16.3155 -16.3294 -16.3424 -16.3543 -16.3118 -16.3748 -16.3475 -16.39 -16.3954 -16.3993 -16.4014 -16.4019 -16.3829 -16.3976 -16.3928 -16.3862 -16.3777 -16.3676 -16.3556 -16.342 -16.3267 -16.3098 -16.1846 -16.2715 -16.268 -16.2452 -16.1857 -16.1782 -16.1518 -16.1243 -16.0958 -16.0662 -16.0357 -16.0043 -15.972 -15.9389 -15.9051 -15.8704 -15.8351 -15.7991 -15.7625 -15.7252 -15.6874 -15.649 -15.61 -15.5706 -15.5307 -15.4904 -15.4497 -15.4086 -15.3673 -15.3257 -15.284 -15.2421 -15.2002 -15.1583 -15.1165 -15.075 -15.0338 -14.993 -14.9528 -14.9134 -14.8747 -14.8372 -14.8008 -14.7658 -14.7324 -14.7008 -14.6712 -14.6438 -14.6188 -14.5964 -14.5769 -14.5605 -14.5472 -14.5374 -14.5312 -14.5286 -14.5299 -14.535 -14.5441 -14.5571 -14.574 -14.5949 -14.6195 -14.6479 -14.68 -14.7156 -14.7546 -14.7968 -14.8422 -14.8905 -14.9417 -14.9956 -15.052 -15.1109 -15.1721 -15.2356 -15.3011 -15.3686 -15.4381 -15.5093 -15.6885 -15.8654 -16.3293 -16.455 -16.3752 -16.5922 -16.5633 -16.9253 -16.7266 -16.7221 -16.9525 -17.269 -17.2512 -17.0685 -17.0695 -17.0445 -16.8507 -17.3441 -17.2088 -17.3005 -17.2831 -17.148 -17.1649 -17.1898 -17.2041 -17.2078 -17.2008 -17.1838 -17.1576 -17.1233 -17.082 -17.0347 -16.9826 -16.9266 -16.8675 -16.8061 -16.7431 -16.679 -16.6143 -16.5494 -16.4846 -16.4204 -16.3568 -16.2942 -16.2327 -16.1724 -16.1135 -16.056 -16.0001 -15.9458 -15.8931 -15.8421 -15.7928 -15.7451 -15.6991 -15.6548 -15.6122 -15.5711 -15.5317 -15.4938 -15.4575 -15.4227 -15.3893 -15.3573 -15.3268 -15.2975 -15.2696 -15.2429 -15.2174 -15.1931 -15.1699 -15.1478 -15.1267 -15.1067 -15.0876 -15.0694 -15.0521 -15.0357 -15.0201 -15.0053 -14.9912 -14.9778 -14.9652 -14.9531 -14.9418 -14.931 -14.9208 -14.9111 -14.902 -14.8933 -14.8852 -14.8775 -14.8702 -14.8633 -14.8569 -14.8508 -14.8451 -14.8397 -14.8347 -14.8299 -14.8255 -14.8213 -14.8174 -14.8138 -14.8104 -14.8072 -14.8043 -14.8015 -14.799 -14.7967 -14.7945 -14.7925 -14.7906 -14.789 -14.7874 -14.786 -14.7847 -14.7836 -14.7825 -14.7816
-20.6074 -20.2475 -20.3433 -20.4753 -20.5433 -19.9804 -20.1153 -19.9341 -19.7236 -19.7789 -19.9438 -19.9126 -20.138 -19.8456 -20.2075 -19.8899 -19.3844 -19.2428 -19.397 -19.1066 -20.0299 -19.2597 -19.3857 -18.9277 -18.7412 -18.5651 -18.5647 -18.2454 -18.4533 -18.4548 -18.4629 -17.9475 -18.0033 -17.9453 -17.9031 -17.9113 -18.4873 -18.5542 -18.22 -18.0537 -17.7543 -17.0843 -16.9637 -17.4448 -17.1687 -16.9215 -16.7197 -16.6041 -16.5655 -16.5198 -16.4444 -16.3984 -16.4262 -16.4184 -16.3733 -16.3833 -16.3395 -16.3118 -16.3381 -16.2598 -16.2132 -16.1176 -16.1608 -16.102 -16.1124 -15.9779 -15.8848 -15.8928 -15.8866 -15.8809 -15.8758 -15.8711 -15.867 -15.8635 -15.8606 -15.8584 -15.8568 -15.8559 -15.8556 -15.8561 -15.8572 -15.8591 -15.8617 -15.8651 -15.8692 -15.874 -15.8796 -15.8859 -15.893 -15.9007 -15.9092 -15.9184 -15.9283 -15.9389 -15.9501 -15.9619 -15.9743 -15.9873 -16.0009 -16.0149 -16.0293 -16.0441 -16.0593 -16.0748 -16.0904 -16.1062 -16.1221 -16.138 -16.1538 -16.1695 -16.1848 -16.1999 -16.2145 -16.2285 -16.2419 -16.2545 -16.2662 -16.277 -16.2868 -16.2954 -16.3027 -16.3087 -16.3133 -16.3164 -16.318 -16.318 -16.3163 -16.313 -16.308 -16.3013 -16.293 -16.2829 -16.2713 -16.258 -16.2431 -16.2268 -16.2089 -16.1896 -16.169 -16.1471 -16.1239 -16.0995 -16.0739 -16.0473 -16.0197 -15.991 -15.9615 -15.931 -15.8997 -15.8676 -15.8348 -15.8012 -15.7669 -15.732 -15.6965 -15.6603 -15.6236 -15.5863 -15.5486 -15.5104 -15.4717 -15.4327 -15.3933 -15.3537 -15.3137 -15.2736 -15.2334 -15.193 -15.1527 -15.1125 -15.0724 -15.0326 -14.9932 -14.9543 -14.916 -14.8785 -14.8418 -14.8062 -14.7718 -14.7389 -14.7075 -14.6778 -14.6501 -14.6246 -14.6014 -14.5807 -14.5628 -14.5478 -14.5358 -14.5272 -14.5219 -14.5201 -14.5219 -14.5274 -14.5366 -14.5496 -14.5663 -14.5867 -14.6108 -14.6385 -14.6697 -14.7044 -14.7423 -14.7835 -14.8278 -14.875 -14.9251 -14.9779 -15.0333 -15.0913 -15.1517 -15.2143 -15.2792 -15.3462 -15.4152 -15.4862 -15.8437 -15.7919 -16.0229 -16.1421 -16.2556 -16.395 -16.5449 -16.6068 -16.786 -16.7466 -17.007 -16.9751 -17.1506 -17.1814 -17.0309 -17.1119 -16.9503 -17.5107 -17.3107 -17.3365 -17.3033 -17.2639 -17.1932 -17.2202 -17.2356 -17.2389 -17.2304 -17.2108 -17.1812 -17.1431 -17.0977 -17.0464 -16.9903 -16.9306 -16.868 -16.8034 -16.7373 -16.6705 -16.6033 -16.5362 -16.4694 -16.4034 -16.3382 -16.2742 -16.2114 -16.15 -16.0901 -16.0319 -15.9752 -15.9203 -15.8671 -15.8157 -15.766 -15.7181 -15.6719 -15.6274 -15.5846 -15.5435 -15.5041 -15.4663 -15.43 -15.3952 -15.362 -15.3302 -15.2997 -15.2707 -15.2429 -15.2164 -15.1912 -15.1671 -15.1441 -15.1222 -15.1014 -15.0816 -15.0627 -15.0448 -15.0277 -15.0115 -14.9961 -14.9815 -14.9677 -14.9545 -14.9421 -14.9303 -14.9191 -14.9085 -14.8985 -14.889 -14.8801 -14.8716 -14.8636 -14.8561 -14.849 -14.8422 -14.8359 -14.83 -14.8244 -14.8192 -14.8142 -14.8096 -14.8053 -14.8012 -14.7974 -14.7939 -14.7905 -14.7875 -14.7846 -14.7819 -14.7794 -14.7772 -14.775 -14.7731 -14.7713 -14.7696 -14.7681 -14.7668 -14.7655 -14.7644 -14.7634 -14.7624
-20.4186 -19.6444 -20.2891 -20.1758 -20.2248 -19.9451 -19.5899 -19.3976 -19.4197 -19.4787 -19.6732 -19.4142 -20.1135 -19.4692 -19.6537 -19.9609 -19.7839 -19.0706 -18.8823 -19.038 -19.7451 -18.771 -18.9027 -19.0518 -18.7256 -18.6523 -18.3653 -17.9097 -17.8909 -18.0767 -17.8893 -18.0408 -17.7858 -17.811 -17.5066 -17.654 -18.2429 -18.2502 -17.7413 -17.5491 -17.4221 -17.316 -17.1306 -17.0381 -17.0356 -16.803 -16.5987 -16.4845 -16.4422 -16.366 -16.3373 -16.2777 -16.3055 -16.2976 -16.2703 -16.2446 -16.2523 -16.2446 -16.1632 -16.1567 -16.0915 -16.0992 -16.0389 -15.9626 -15.9376 -15.8942 -15.851 -15.8445 -15.8385 -15.833 -15.828 -15.8234 -15.8195 -15.8161 -15.8133 -15.8111 -15.8095 -15.8086 -15.8083 -15.8087 -15.8097 -15.8115 -15.814 -15.8171 -15.821 -15.8255 -15.8308 -15.8368 -15.8435 -15.8508 -15.8588 -15.8675 -15.8768 -15.8868 -15.8974 -15.9085 -15.9202 -15.9324 -15.9451 -15.9582 -15.9718 -15.9856 -15.9998 -16.0142 -16.0288 -16.0436 -16.0583 -16.073 -16.0877 -16.1021 -16.1163 -16.1301 -16.1435 -16.1563 -16.1685 -16.18 -16.1906 -16.2003 -16.209 -16.2166 -16.2231 -16.2283 -16.2321 -16.2346 -16.2356 -16.2351 -16.2331 -16.2295 -16.2244 -16.2177 -16.2094 -16.1995 -16.1881 -16.1751 -16.1607 -16.1448 -16.1275 -16.1089 -16.0889 -16.0677 -16.0452 -16.0217 -15.997 -15.9712 -15.9445 -15.9168 -15.8882 -15.8587 -15.8284 -15.7973 -15.7655 -15.7329 -15.6997 -15.6658 -15.6314 -15.5963 -15.5608 -15.5247 -15.4881 -15.4511 -15.4138 -15.376 -15.338 -15.2997 -15.2611 -15.2225 -15.1837 -15.1449 -15.1062 -15.0675 -15.0291 -14.9911 -14.9534 -14.9162 -14.8798 -14.8441 -14.8093 -14.7756 -14.7431 -14.7119 -14.6824 -14.6546 -14.6286 -14.6048 -14.5832 -14.5641 -14.5476 -14.5339 -14.5231 -14.5155 -14.511 -14.5098 -14.5121 -14.5179 -14.5272 -14.54 -14.5564 -14.5764 -14.5999 -14.6268 -14.6571 -14.6908 -14.7277 -14.7678 -14.8109 -14.857 -14.9059 -14.9575 -15.0119 -15.0687 -15.1281 -15.1898 -15.2539 -15.3201 -15.3885 -15.459 -15.5314 -15.8037 -16.0292 -16.3285 -16.1978 -16.2939 -16.3395 -16.5118 -16.6691 -16.7369 -16.9099 -16.778 -16.9242 -17.148 -17.0434 -16.9944 -17.059 -17.3836 -17.3709 -17.3971 -17.3538 -17.3677 -17.2485 -17.2425 -17.259 -17.2619 -17.2514 -17.2287 -17.1953 -17.1529 -17.1033 -17.0478 -16.9878 -16.9245 -16.8586 -16.7909 -16.7222 -16.653 -16.5836 -16.5146 -16.4462 -16.3786 -16.3122 -16.247 -16.1833 -16.1211 -16.0606 -16.0017 -15.9446 -15.8893 -15.8359 -15.7842 -15.7344 -15.6864 -15.6402 -15.5957 -15.553 -15.5121 -15.4728 -15.4351 -15.399 -15.3645 -15.3315 -15.2999 -15.2698 -15.241 -15.2135 -15.1873 -15.1624 -15.1386 -15.1159 -15.0944 -15.0738 -15.0543 -15.0358 -15.0181 -15.0014 -14.9855 -14.9704 -14.956 -14.9425 -14.9296 -14.9174 -14.9058 -14.8949 -14.8845 -14.8747 -14.8655 -14.8567 -14.8485 -14.8407 -14.8333 -14.8264 -14.8199 -14.8137 -14.8079 -14.8025 -14.7974 -14.7926 -14.7881 -14.7839 -14.7799 -14.7763 -14.7728 -14.7696 -14.7666 -14.7638 -14.7612 -14.7588 -14.7566 -14.7546 -14.7527 -14.7509 -14.7493 -14.7479 -14.7465 -14.7453 -14.7442 -14.7433 -14.7424
-20.0345 -19.5636 -19.7512 -20.0508 -20.224 -19.9415 -19.5087 -19.1878 -19.28 -19.1214 -19.3736 -19.2551 -19.504 -19.29 -19.1884 -19.2989 -19.0428 -19.2946 -18.6199 -18.849 -19.1688 -18.6798 -18.5204 -18.7915 -18.6831 -18.5381 -18.0897 -18.1406 -17.8899 -17.7839 -17.7553 -18.1662 -18.2451 -18.2155 -18.068 -17.4388 -17.6494 -17.8952 -17.9338 -17.6837 -17.3762 -17.1273 -17.0181 -16.5706 -16.6175 -16.6311 -16.4822 -16.3692 -16.2539 -16.2116 -16.2012 -16.213 -16.1708 -16.1417 -16.1702 -16.1259 -16.133 -16.1097 -16.0464 -16.0214 -16.0089 -16.0034 -15.8715 -15.8629 -15.7848 -15.8134 -15.8067 -15.8004 -15.7946 -15.7892 -15.7843 -15.7799 -15.7761 -15.7727 -15.77 -15.7678 -15.7663 -15.7653 -15.765 -15.7653 -15.7663 -15.7679 -15.7702 -15.7732 -15.7768 -15.7811 -15.7861 -15.7917 -15.798 -15.8049 -15.8125 -15.8206 -15.8294 -15.8388 -15.8487 -15.8592 -15.8702 -15.8816 -15.8935 -15.9058 -15.9185 -15.9314 -15.9446 -15.9581 -15.9716 -15.9853 -15.999 -16.0126 -16.0261 -16.0395 -16.0525 -16.0652 -16.0774 -16.0891 -16.1002 -16.1106 -16.1202 -16.1289 -16.1366 -16.1434 -16.149 -16.1534 -16.1566 -16.1584 -16.1589 -16.158 -16.1557 -16.1519 -16.1466 -16.1399 -16.1316 -16.1219 -16.1107 -16.0981 -16.0841 -16.0686 -16.0519 -16.0338 -16.0145 -15.994 -15.9723 -15.9495 -15.9256 -15.9008 -15.8749 -15.8481 -15.8204 -15.7919 -15.7626 -15.7325 -15.7017 -15.6702 -15.638 -15.6052 -15.5718 -15.5379 -15.5035 -15.4686 -15.4332 -15.3975 -15.3613 -15.3249 -15.2882 -15.2512 -15.2141 -15.1768 -15.1395 -15.1022 -15.065 -15.028 -14.9912 -14.9547 -14.9188 -14.8833 -14.8486 -14.8146 -14.7816 -14.7496 -14.7189 -14.6895 -14.6617 -14.6355 -14.6112 -14.589 -14.5689 -14.5512 -14.5359 -14.5234 -14.5136 -14.5068 -14.503 -14.5024 -14.505 -14.5109 -14.5202 -14.5328 -14.5489 -14.5684 -14.5912 -14.6173 -14.6467 -14.6794 -14.7152 -14.7541 -14.796 -14.8408 -14.8885 -14.9389 -14.9919 -15.0476 -15.1058 -15.1664 -15.2295 -15.2948 -15.3623 -15.432 -15.5038 -15.5776 -15.8268 -16.2605 -16.2942 -16.1574 -16.4048 -16.5066 -16.5385 -16.774 -16.8809 -16.8231 -16.957 -16.994 -17.1828 -17.1794 -16.9949 -17.2789 -17.3159 -17.2758 -17.3892 -17.3769 -17.4759 -17.2592 -17.2771 -17.2793 -17.2663 -17.2398 -17.2021 -17.1552 -17.1013 -17.0418 -16.9782 -16.9115 -16.8427 -16.7725 -16.7015 -16.6303 -16.5592 -16.4887 -16.419 -16.3504 -16.283 -16.2171 -16.1527 -16.0901 -16.0291 -15.97 -15.9127 -15.8573 -15.8038 -15.7522 -15.7025 -15.6546 -15.6086 -15.5644 -15.522 -15.4813 -15.4423 -15.405 -15.3692 -15.3351 -15.3025 -15.2713 -15.2415 -15.2131 -15.1861 -15.1603 -15.1357 -15.1123 -15.0901 -15.0689 -15.0487 -15.0296 -15.0114 -14.9941 -14.9777 -14.9622 -14.9474 -14.9334 -14.9202 -14.9076 -14.8957 -14.8844 -14.8738 -14.8637 -14.8542 -14.8452 -14.8367 -14.8287 -14.8211 -14.8139 -14.8072 -14.8009 -14.7949 -14.7893 -14.7841 -14.7791 -14.7745 -14.7701 -14.766 -14.7622 -14.7587 -14.7553 -14.7522 -14.7494 -14.7467 -14.7442 -14.7419 -14.7397 -14.7377 -14.7359 -14.7343 -14.7327 -14.7313 -14.73 -14.7289 -14.7278 -14.7269 -14.726
-20.3505 -20.0752 -19.3577 -19.4727 -20.0534 -19.3515 -19.1922 -19.3129 -18.8185 -18.8947 -19.1963 -18.8437 -18.9512 -19.3157 -19.7401 -19.3822 -19.0231 -18.6099 -18.4959 -18.5434 -18.9368 -18.7431 -18.2671 -18.6156 -18.3098 -18.3326 -17.9669 -17.6908 -17.4922 -17.2667 -17.8667 -18.2175 -18.1378 -18.1087 -17.7118 -17.9581 -17.1895 -17.4777 -17.8 -17.6236 -17.3246 -17.2297 -16.855 -16.6718 -16.3479 -16.4999 -16.3663 -16.2544 -16.1398 -16.114 -16.1034 -16.0981 -16.0341 -16.0448 -16.0375 -16.0097 -16.055 -15.9936 -15.969 -15.853 -15.88 -15.8543 -15.7745 -15.7848 -15.7776 -15.7708 -15.7643 -15.7582 -15.7525 -15.7472 -15.7424 -15.7382 -15.7344 -15.7311 -15.7284 -15.7263 -15.7247 -15.7238 -15.7234 -15.7237 -15.7245 -15.726 -15.7281 -15.7309 -15.7343 -15.7383 -15.743 -15.7483 -15.7542 -15.7607 -15.7678 -15.7755 -15.7837 -15.7925 -15.8018 -15.8116 -15.8219 -15.8326 -15.8437 -15.8552 -15.867 -15.8791 -15.8914 -15.9039 -15.9165 -15.9292 -15.9418 -15.9544 -15.9669 -15.9791 -15.9911 -16.0027 -16.0139 -16.0245 -16.0346 -16.044 -16.0526 -16.0604 -16.0672 -16.0731 -16.078 -16.0817 -16.0842 -16.0856 -16.0856 -16.0843 -16.0817 -16.0777 -16.0723 -16.0655 -16.0573 -16.0478 -16.0368 -16.0245 -16.0108 -15.9959 -15.9796 -15.9621 -15.9435 -15.9236 -15.9027 -15.8806 -15.8576 -15.8335 -15.8085 -15.7826 -15.7558 -15.7283 -15.6999 -15.6708 -15.641 -15.6105 -15.5794 -15.5477 -15.5154 -15.4826 -15.4493 -15.4156 -15.3814 -15.3468 -15.312 -15.2768 -15.2414 -15.2057 -15.17 -15.1341 -15.0982 -15.0624 -15.0267 -14.9912 -14.956 -14.9211 -14.8867 -14.8529 -14.8198 -14.7875 -14.7561 -14.7258 -14.6968 -14.669 -14.6428 -14.6182 -14.5953 -14.5745 -14.5557 -14.5392 -14.5251 -14.5136 -14.5047 -14.4986 -14.4954 -14.4951 -14.498 -14.504 -14.5132 -14.5256 -14.5412 -14.5601 -14.5822 -14.6075 -14.6359 -14.6675 -14.7021 -14.7398 -14.7804 -14.8239 -14.8702 -14.9192 -14.9709 -15.0252 -15.0821 -15.1415 -15.2032 -15.2674 -15.3338 -15.4025 -15.4734 -15.5464 -15.7965 -16.229 -16.2955 -16.2156 -16.2598 -16.3643 -16.5545 -16.6929 -16.7697 -16.6946 -16.8734 -17.4594 -17.17 -17.0282 -17.1119 -17.1061 -17.0612 -17.1008 -17.2466 -17.3942 -17.4282 -17.3404 -17.2846 -17.2859 -17.2697 -17.2389 -17.1964 -17.1451 -17.0871 -17.024 -16.9573 -16.8879 -16.8168 -16.7445 -16.6719 -16.5992 -16.527 -16.4554 -16.3849 -16.3157 -16.2478 -16.1816 -16.117 -16.0542 -15.9932 -15.9341 -15.877 -15.8218 -15.7685 -15.7172 -15.6678 -15.6203 -15.5747 -15.5309 -15.4889 -15.4487 -15.4102 -15.3734 -15.3382 -15.3045 -15.2724 -15.2418 -15.2125 -15.1847 -15.1581 -15.1328 -15.1087 -15.0858 -15.0641 -15.0434 -15.0237 -15.005 -14.9872 -14.9704 -14.9544 -14.9393 -14.9249 -14.9113 -14.8984 -14.8862 -14.8746 -14.8637 -14.8534 -14.8436 -14.8344 -14.8257 -14.8174 -14.8097 -14.8024 -14.7955 -14.789 -14.7829 -14.7771 -14.7717 -14.7666 -14.7619 -14.7574 -14.7532 -14.7493 -14.7456 -14.7422 -14.739 -14.7361 -14.7333 -14.7307 -14.7283 -14.7261 -14.7241 -14.7222 -14.7204 -14.7188 -14.7174 -14.716 -14.7148 -14.7137 -14.7127 -14.7118 -14.711
-20.3699 -20.1875 -19.5193 -19.6773 -19.8328 -19.5503 -19.4184 -19.1207 -18.7764 -18.5211 -18.7568 -18.6305 -18.7627 -18.8948 -18.8506 -19.1041 -18.9246 -18.7525 -18.6268 -18.2595 -18.3451 -18.4845 -18.3575 -17.9216 -18.1853 -17.8254 -17.8197 -17.3713 -17.137 -17.113 -17.6048 -17.5138 -17.864 -18.1027 -18.3317 -18.1191 -17.7984 -16.9791 -17.2656 -17.4106 -17.0905 -16.782 -16.5802 -16.4811 -16.265 -16.0968 -16.2705 -16.1565 -16.0958 -15.8558 -16.0258 -15.9825 -15.8315 -15.8231 -15.9036 -15.9137 -15.8702 -15.8788 -15.7673 -15.7549 -15.7469 -15.7569 -15.7493 -15.742 -15.735 -15.7283 -15.722 -15.716 -15.7105 -15.7053 -15.7007 -15.6965 -15.6928 -15.6896 -15.687 -15.6848 -15.6833 -15.6823 -15.6819 -15.682 -15.6828 -15.6841 -15.6861 -15.6886 -15.6918 -15.6956 -15.6999 -15.7049 -15.7104 -15.7165 -15.7231 -15.7303 -15.7381 -15.7463 -15.755 -15.7642 -15.7738 -15.7838 -15.7942 -15.8049 -15.8159 -15.8271 -15.8385 -15.8501 -15.8618 -15.8735 -15.8852 -15.8968 -15.9083 -15.9195 -15.9305 -15.9411 -15.9513 -15.9609 -15.97 -15.9785 -15.9862 -15.9931 -15.9992 -16.0043 -16.0084 -16.0115 -16.0135 -16.0143 -16.0139 -16.0123 -16.0094 -16.0052 -15.9997 -15.9929 -15.9848 -15.9754 -15.9646 -15.9526 -15.9393 -15.9248 -15.909 -15.8921 -15.874 -15.8549 -15.8346 -15.8133 -15.791 -15.7678 -15.7436 -15.7186 -15.6927 -15.6661 -15.6387 -15.6105 -15.5817 -15.5523 -15.5222 -15.4915 -15.4604 -15.4287 -15.3965 -15.3639 -15.3309 -15.2975 -15.2639 -15.23 -15.1958 -15.1615 -15.1271 -15.0926 -15.0581 -15.0237 -14.9894 -14.9554 -14.9217 -14.8883 -14.8555 -14.8232 -14.7917 -14.761 -14.7311 -14.7024 -14.6748 -14.6486 -14.6238 -14.6006 -14.5791 -14.5595 -14.542 -14.5266 -14.5135 -14.5028 -14.4946 -14.4891 -14.4863 -14.4864 -14.4894 -14.4954 -14.5043 -14.5164 -14.5315 -14.5497 -14.5711 -14.5954 -14.6229 -14.6533 -14.6867 -14.7231 -14.7623 -14.8043 -14.8492 -14.8967 -14.9469 -14.9997 -15.0551 -15.113 -15.1733 -15.2361 -15.3012 -15.3686 -15.4383 -15.5992 -15.7956 -16.1387 -16.4502 -16.2091 -16.256 -16.391 -16.6354 -16.7219 -16.795 -16.8663 -16.9392 -16.8898 -17.2749 -17.1133 -17.2309 -17.1504 -16.9013 -17.359 -17.1625 -17.2478 -17.391 -17.2539 -17.2228 -17.2762 -17.2558 -17.22 -17.1731 -17.1179 -17.0567 -16.9909 -16.9219 -16.8507 -16.778 -16.7046 -16.631 -16.5575 -16.4847 -16.4128 -16.342 -16.2726 -16.2048 -16.1386 -16.0742 -16.0116 -15.951 -15.8923 -15.8356 -15.7809 -15.7281 -15.6774 -15.6286 -15.5817 -15.5367 -15.4936 -15.4522 -15.4127 -15.3749 -15.3387 -15.3042 -15.2712 -15.2397 -15.2097 -15.1811 -15.1539 -15.128 -15.1033 -15.0798 -15.0575 -15.0363 -15.0161 -14.997 -14.9788 -14.9616 -14.9453 -14.9298 -14.9151 -14.9012 -14.888 -14.8755 -14.8637 -14.8526 -14.842 -14.832 -14.8226 -14.8137 -14.8053 -14.7974 -14.7899 -14.7829 -14.7763 -14.77 -14.7642 -14.7587 -14.7535 -14.7486 -14.744 -14.7398 -14.7358 -14.732 -14.7285 -14.7253 -14.7222 -14.7194 -14.7167 -14.7143 -14.712 -14.7099 -14.708 -14.7062 -14.7045 -14.703 -14.7016 -14.7003 -14.6992 -14.6981 -14.6972 -14.6964 -14.6956
-20.3243 -19.9164 -20.037 -19.1874 -19.527 -19.7648 -19.6295 -19.0427 -18.8323 -18.8598 -18.4724 -18.3671 -18.5834 -18.6428 -18.5184 -18.7824 -18.7486 -18.5104 -18.3705 -18.3562 -17.9453 -17.9668 -18.1464 -18.1242 -18.1379 -17.5936 -17.5473 -17.6687 -17.8178 -17.0147 -17.4281 -17.4507 -17.5268 -18.2334 -18.097 -17.7685 -17.7551 -17.6146 -17.3085 -16.8771 -16.8503 -16.6291 -16.5238 -16.4457 -16.3327 -16.0226 -16.158 -16.117 -16.0194 -15.9756 -15.8074 -15.7993 -15.7732 -15.7826 -15.7742 -15.7658 -15.7407 -15.7501 -15.6876 -15.733 -15.7251 -15.7174 -15.71 -15.7029 -15.696 -15.6895 -15.6833 -15.6775 -15.6721 -15.6671 -15.6625 -15.6584 -15.6548 -15.6517 -15.6491 -15.647 -15.6454 -15.6444 -15.6439 -15.644 -15.6446 -15.6458 -15.6476 -15.6499 -15.6529 -15.6564 -15.6604 -15.665 -15.6702 -15.6759 -15.6821 -15.6888 -15.696 -15.7037 -15.7119 -15.7204 -15.7294 -15.7387 -15.7484 -15.7583 -15.7685 -15.779 -15.7896 -15.8003 -15.8111 -15.8219 -15.8327 -15.8434 -15.8539 -15.8642 -15.8742 -15.8839 -15.8931 -15.9019 -15.9101 -15.9177 -15.9245 -15.9307 -15.936 -15.9404 -15.9439 -15.9464 -15.9478 -15.9481 -15.9474 -15.9454 -15.9423 -15.938 -15.9324 -15.9256 -15.9175 -15.9082 -15.8977 -15.886 -15.873 -15.8589 -15.8437 -15.8273 -15.8098 -15.7912 -15.7716 -15.7511 -15.7295 -15.7071 -15.6838 -15.6596 -15.6346 -15.6089 -15.5824 -15.5552 -15.5274 -15.4989 -15.4699 -15.4403 -15.4101 -15.3795 -15.3485 -15.317 -15.2852 -15.253 -15.2205 -15.1879 -15.155 -15.1219 -15.0888 -15.0556 -15.0225 -14.9895 -14.9566 -14.924 -14.8917 -14.8598 -14.8284 -14.7976 -14.7676 -14.7383 -14.7099 -14.6826 -14.6564 -14.6316 -14.6081 -14.5862 -14.566 -14.5475 -14.531 -14.5166 -14.5043 -14.4943 -14.4868 -14.4817 -14.4793 -14.4796 -14.4826 -14.4884 -14.4971 -14.5088 -14.5233 -14.5408 -14.5613 -14.5846 -14.611 -14.6402 -14.6723 -14.7072 -14.745 -14.7855 -14.8288 -14.8747 -14.9232 -14.9744 -15.0281 -15.0843 -15.143 -15.2042 -15.2677 -15.3336 -15.4018 -15.668 -15.7917 -16.4622 -16.4997 -16.3336 -16.2636 -16.4193 -16.5565 -16.6594 -16.7465 -16.8353 -17.1157 -16.7645 -17.0243 -17.3376 -17.2973 -17.2754 -17.2325 -17.3305 -17.2658 -17.2414 -17.3015 -17.2231 -17.2493 -17.247 -17.2218 -17.182 -17.1321 -17.0746 -17.0116 -16.9445 -16.8744 -16.8025 -16.7293 -16.6555 -16.5817 -16.5082 -16.4355 -16.3638 -16.2934 -16.2244 -16.1571 -16.0914 -16.0276 -15.9658 -15.9058 -15.8479 -15.792 -15.738 -15.6861 -15.6362 -15.5883 -15.5422 -15.4981 -15.4558 -15.4154 -15.3767 -15.3397 -15.3044 -15.2707 -15.2385 -15.2078 -15.1786 -15.1508 -15.1243 -15.0991 -15.0752 -15.0524 -15.0308 -15.0102 -14.9907 -14.9722 -14.9547 -14.938 -14.9222 -14.9073 -14.8931 -14.8797 -14.867 -14.855 -14.8437 -14.833 -14.8228 -14.8133 -14.8042 -14.7957 -14.7876 -14.7801 -14.7729 -14.7662 -14.7599 -14.7539 -14.7483 -14.7431 -14.7381 -14.7335 -14.7291 -14.7251 -14.7213 -14.7177 -14.7144 -14.7113 -14.7084 -14.7057 -14.7032 -14.7009 -14.6988 -14.6968 -14.6949 -14.6933 -14.6917 -14.6903 -14.689 -14.6878 -14.6867 -14.6857 -14.6849 -14.6841 -14.6834
-20.4936 -20.2974 -20.1896 -19.963 -19.188 -19.4862 -19.9548 -19.3125 -19.378 -18.9143 -18.6974 -18.3072 -18.4721 -18.1471 -18.2779 -18.3309 -18.2116 -18.3756 -18.5974 -18.1204 -17.8773 -17.669 -17.7544 -17.5985 -17.7383 -17.6364 -17.7638 -17.2092 -17.3322 -17.5078 -16.8656 -17.3969 -17.1382 -18.28 -17.8373 -17.3616 -17.5501 -17.1301 -17.0848 -16.8906 -16.6342 -16.5779 -16.4318 -16.2841 -16.1911 -16.1121 -15.8534 -16.0024 -15.9632 -15.8825 -15.8753 -15.7604 -15.7522 -15.7439 -15.7356 -15.7273 -15.7191 -15.7109 -15.7029 -15.695 -15.6873 -15.6798 -15.6725 -15.6655 -15.6589 -15.6525 -15.6464 -15.6408 -15.6355 -15.6306 -15.6262 -15.6221 -15.6186 -15.6155 -15.6129 -15.6108 -15.6092 -15.6082 -15.6076 -15.6076 -15.6082 -15.6092 -15.6108 -15.613 -15.6157 -15.6189 -15.6227 -15.6269 -15.6317 -15.637 -15.6428 -15.6491 -15.6558 -15.663 -15.6706 -15.6786 -15.6869 -15.6956 -15.7045 -15.7138 -15.7233 -15.7329 -15.7427 -15.7526 -15.7626 -15.7726 -15.7825 -15.7923 -15.8019 -15.8113 -15.8205 -15.8292 -15.8376 -15.8455 -15.8529 -15.8597 -15.8658 -15.8712 -15.8758 -15.8795 -15.8824 -15.8844 -15.8853 -15.8852 -15.8841 -15.8819 -15.8785 -15.8741 -15.8684 -15.8616 -15.8536 -15.8445 -15.8342 -15.8227 -15.8101 -15.7964 -15.7816 -15.7657 -15.7488 -15.7308 -15.7119 -15.692 -15.6713 -15.6496 -15.6271 -15.6037 -15.5796 -15.5547 -15.5292 -15.5029 -15.4761 -15.4486 -15.4205 -15.392 -15.3629 -15.3333 -15.3034 -15.273 -15.2423 -15.2113 -15.18 -15.1485 -15.1169 -15.0851 -15.0532 -15.0213 -14.9895 -14.9578 -14.9263 -14.895 -14.8641 -14.8336 -14.8036 -14.7742 -14.7454 -14.7175 -14.6905 -14.6645 -14.6397 -14.6161 -14.5938 -14.5731 -14.5539 -14.5365 -14.5209 -14.5073 -14.4957 -14.4864 -14.4793 -14.4746 -14.4724 -14.4727 -14.4757 -14.4813 -14.4896 -14.5007 -14.5146 -14.5313 -14.5508 -14.5732 -14.5983 -14.6262 -14.6569 -14.6904 -14.7266 -14.7655 -14.807 -14.8512 -14.898 -14.9473 -14.9992 -15.0535 -15.1104 -15.1697 -15.2314 -15.2954 -15.3618 -15.5551 -15.8009 -16.2788 -16.6097 -16.6675 -16.2346 -16.4369 -16.5721 -16.6945 -16.7608 -16.7783 -17.6425 -17.039 -17.1849 -17.2742 -17.2882 -17.3218 -17.3145 -17.3075 -17.3809 -17.1653 -17.204 -17.1963 -17.1876 -17.1847 -17.1589 -17.1189 -17.0688 -17.0114 -16.9486 -16.8818 -16.8122 -16.7407 -16.6681 -16.595 -16.5219 -16.4493 -16.3774 -16.3066 -16.2371 -16.1691 -16.1028 -16.0382 -15.9755 -15.9147 -15.8558 -15.799 -15.7442 -15.6914 -15.6406 -15.5918 -15.545 -15.5001 -15.4571 -15.4159 -15.3765 -15.3388 -15.3029 -15.2686 -15.2359 -15.2047 -15.175 -15.1467 -15.1198 -15.0942 -15.0698 -15.0467 -15.0247 -15.0039 -14.9841 -14.9653 -14.9475 -14.9306 -14.9146 -14.8995 -14.8852 -14.8716 -14.8587 -14.8466 -14.8351 -14.8243 -14.814 -14.8043 -14.7952 -14.7866 -14.7785 -14.7708 -14.7636 -14.7568 -14.7504 -14.7444 -14.7388 -14.7335 -14.7285 -14.7238 -14.7194 -14.7153 -14.7115 -14.7079 -14.7045 -14.7014 -14.6985 -14.6958 -14.6933 -14.6909 -14.6887 -14.6867 -14.6849 -14.6832 -14.6816 -14.6802 -14.6788 -14.6776 -14.6765 -14.6755 -14.6746 -14.6738 -14.6731 -14.6725
-20.7044 -20.4355 -20.2038 -19.9888 -19.5215 -19.1961 -19.5602 -19.8275 -19.6776 -19.3664 -18.8756 -18.4332 -18.3319 -18.2626 -17.9804 -18.0853 -17.9337 -17.9705 -18.0915 -18.3484 -17.8151 -17.5637 -17.4384 -17.3412 -17.2599 -17.4091 -17.0292 -17.274 -17.0274 -16.7737 -16.5746 -16.6501 -17.2543 -17.7518 -17.6761 -17.649 -17.3541 -16.9583 -16.6357 -16.5446 -16.4334 -16.3797 -16.2324 -16.2253 -16.1494 -16.0521 -16.0132 -15.7505 -15.8531 -15.8268 -15.8155 -15.8467 -15.714 -15.7058 -15.6976 -15.6894 -15.6813 -15.6733 -15.6654 -15.6577 -15.6502 -15.6429 -15.6358 -15.629 -15.6224 -15.6162 -15.6103 -15.6048 -15.5996 -15.5949 -15.5905 -15.5866 -15.5831 -15.5801 -15.5775 -15.5754 -15.5738 -15.5727 -15.5721 -15.572 -15.5724 -15.5733 -15.5748 -15.5767 -15.5792 -15.5822 -15.5856 -15.5896 -15.594 -15.599 -15.6043 -15.6102 -15.6164 -15.6231 -15.6301 -15.6375 -15.6453 -15.6533 -15.6616 -15.6702 -15.679 -15.6879 -15.6969 -15.7061 -15.7152 -15.7244 -15.7335 -15.7425 -15.7513 -15.7599 -15.7682 -15.7761 -15.7837 -15.7908 -15.7974 -15.8034 -15.8088 -15.8135 -15.8175 -15.8207 -15.823 -15.8244 -15.8249 -15.8245 -15.823 -15.8206 -15.817 -15.8124 -15.8067 -15.7999 -15.792 -15.783 -15.7729 -15.7617 -15.7495 -15.7361 -15.7218 -15.7064 -15.69 -15.6726 -15.6543 -15.6351 -15.6151 -15.5941 -15.5724 -15.5499 -15.5266 -15.5026 -15.4779 -15.4526 -15.4267 -15.4001 -15.3731 -15.3455 -15.3174 -15.2889 -15.26 -15.2308 -15.2012 -15.1713 -15.1412 -15.1108 -15.0803 -15.0497 -15.0191 -14.9885 -14.9579 -14.9275 -14.8972 -14.8672 -14.8376 -14.8084 -14.7797 -14.7516 -14.7242 -14.6975 -14.6718 -14.647 -14.6233 -14.6009 -14.5797 -14.56 -14.5418 -14.5252 -14.5105 -14.4975 -14.4866 -14.4777 -14.471 -14.4666 -14.4645 -14.4648 -14.4675 -14.4729 -14.4807 -14.4912 -14.5044 -14.5202 -14.5387 -14.5599 -14.5837 -14.6103 -14.6395 -14.6714 -14.7059 -14.743 -14.7828 -14.8251 -14.8699 -14.9172 -14.9671 -15.0194 -15.0742 -15.1314 -15.191 -15.2529 -15.3172 -15.6151 -15.7861 -15.9857 -16.3697 -16.6797 -16.3928 -16.3977 -16.5841 -16.7049 -16.7352 -16.8019 -16.931 -17.0161 -17.0577 -17.1527 -17.1769 -17.2259 -17.253 -17.2227 -17.331 -17.1821 -17.0944 -17.2598 -17.0866 -17.0862 -17.1897 -17.029 -16.982 -16.9272 -16.8666 -16.8018 -16.7341 -16.6644 -16.5935 -16.522 -16.4506 -16.3795 -16.3092 -16.24 -16.172 -16.1056 -16.0408 -15.9777 -15.9165 -15.8573 -15.7999 -15.7446 -15.6913 -15.6399 -15.5906 -15.5432 -15.4978 -15.4542 -15.4125 -15.3726 -15.3345 -15.2981 -15.2634 -15.2303 -15.1987 -15.1687 -15.1401 -15.1129 -15.087 -15.0624 -15.039 -15.0168 -14.9957 -14.9758 -14.9568 -14.9388 -14.9218 -14.9057 -14.8904 -14.876 -14.8623 -14.8494 -14.8372 -14.8256 -14.8147 -14.8044 -14.7947 -14.7855 -14.7769 -14.7687 -14.761 -14.7538 -14.747 -14.7406 -14.7345 -14.7289 -14.7235 -14.7186 -14.7139 -14.7095 -14.7054 -14.7015 -14.6979 -14.6946 -14.6914 -14.6885 -14.6858 -14.6833 -14.6809 -14.6787 -14.6767 -14.6749 -14.6732 -14.6716 -14.6701 -14.6688 -14.6676 -14.6665 -14.6655 -14.6646 -14.6638 -14.663 -14.6624 -14.6618
-20.825 -20.5231 -20.2192 -19.9168 -19.6922 -19.1051 -19.5069 -19.3814 -19.5351 -19.7497 -19.0569 -18.684 -18.6518 -18.5245 -17.944 -17.8456 -18.1166 -18.0989 -17.5955 -17.8858 -17.7159 -17.8043 -17.9978 -17.6371 -17.45 -17.4501 -17.3686 -17.0584 -16.6135 -16.9272 -17.1585 -16.4608 -16.9646 -17.2047 -17.6063 -17.3081 -16.8657 -16.7596 -16.5667 -16.2961 -16.22 -16.1469 -16.1054 -16.048 -16.0061 -15.965 -15.8674 -15.6996 -15.6917 -15.7912 -15.7123 -15.6866 -15.6786 -15.6706 -15.6625 -15.6545 -15.6466 -15.6388 -15.6311 -15.6235 -15.6162 -15.609 -15.6021 -15.5954 -15.5891 -15.583 -15.5773 -15.5719 -15.5668 -15.5622 -15.5579 -15.5541 -15.5506 -15.5476 -15.5451 -15.543 -15.5414 -15.5403 -15.5396 -15.5394 -15.5397 -15.5405 -15.5418 -15.5435 -15.5458 -15.5485 -15.5517 -15.5553 -15.5594 -15.564 -15.569 -15.5744 -15.5802 -15.5863 -15.5929 -15.5997 -15.6069 -15.6143 -15.622 -15.6299 -15.638 -15.6463 -15.6546 -15.663 -15.6714 -15.6798 -15.6882 -15.6964 -15.7044 -15.7122 -15.7197 -15.7269 -15.7337 -15.7401 -15.746 -15.7513 -15.756 -15.7601 -15.7635 -15.7661 -15.7679 -15.7689 -15.769 -15.7682 -15.7665 -15.7638 -15.7601 -15.7553 -15.7496 -15.7428 -15.735 -15.7261 -15.7162 -15.7053 -15.6934 -15.6804 -15.6665 -15.6516 -15.6357 -15.6189 -15.6012 -15.5827 -15.5633 -15.5431 -15.5221 -15.5003 -15.4779 -15.4547 -15.4309 -15.4065 -15.3815 -15.3559 -15.3298 -15.3032 -15.2761 -15.2486 -15.2208 -15.1926 -15.164 -15.1352 -15.1062 -15.077 -15.0477 -15.0182 -14.9888 -14.9593 -14.93 -14.9007 -14.8717 -14.8429 -14.8145 -14.7866 -14.7591 -14.7322 -14.706 -14.6805 -14.6559 -14.6322 -14.6097 -14.5882 -14.568 -14.5492 -14.5319 -14.5161 -14.502 -14.4897 -14.4792 -14.4707 -14.4643 -14.46 -14.4579 -14.458 -14.4605 -14.4654 -14.4728 -14.4826 -14.4949 -14.5097 -14.5271 -14.5471 -14.5696 -14.5947 -14.6223 -14.6525 -14.6853 -14.7205 -14.7583 -14.7986 -14.8413 -14.8865 -14.9342 -14.9843 -15.0367 -15.0916 -15.1488 -15.2084 -15.2703 -15.5636 -15.8267 -15.9481 -16.0722 -16.4618 -16.4308 -16.3538 -16.4631 -16.581 -16.6257 -16.7418 -16.8987 -16.9484 -16.9782 -16.9741 -16.9998 -17.0442 -16.9309 -17.1593 -17.264 -17.1441 -16.9978 -17.1596 -16.9647 -16.9658 -16.9493 -16.9183 -16.8761 -16.8256 -16.7688 -16.7075 -16.6429 -16.5761 -16.508 -16.4391 -16.3701 -16.3014 -16.2334 -16.1664 -16.1006 -16.0363 -15.9736 -15.9125 -15.8533 -15.796 -15.7406 -15.6871 -15.6356 -15.586 -15.5384 -15.4927 -15.4489 -15.407 -15.3669 -15.3285 -15.2919 -15.257 -15.2236 -15.1919 -15.1617 -15.1329 -15.1055 -15.0795 -15.0548 -15.0313 -15.009 -14.9879 -14.9678 -14.9488 -14.9308 -14.9137 -14.8975 -14.8822 -14.8678 -14.8541 -14.8412 -14.8289 -14.8174 -14.8065 -14.7962 -14.7865 -14.7773 -14.7687 -14.7605 -14.7529 -14.7457 -14.7389 -14.7325 -14.7265 -14.7209 -14.7156 -14.7106 -14.7059 -14.7016 -14.6975 -14.6937 -14.6901 -14.6868 -14.6837 -14.6808 -14.6781 -14.6756 -14.6732 -14.6711 -14.6691 -14.6672 -14.6655 -14.6639 -14.6625 -14.6612 -14.66 -14.6589 -14.6579 -14.657 -14.6562 -14.6555 -14.6548 -14.6543 -14.6538
-21.2345 -20.8053 -20.3587 -19.8594 -19.238 -18.5732 -19.3727 -18.8575 -19.4564 -19.506 -19.0892 -19.0133 -18.5377 -18.113 -18.2774 -18.5878 -18.5075 -18.0431 -17.8793 -17.4139 -17.3742 -17.9088 -17.8455 -17.7437 -17.5417 -16.985 -16.7861 -16.7386 -17.1361 -17.6476 -17.488 -16.946 -16.3071 -16.5848 -17.1533 -16.9819 -16.6157 -16.4942 -16.5068 -16.2954 -16.1309 -15.9705 -15.9286 -15.923 -15.8834 -15.8234 -15.7611 -15.6742 -15.64 -15.6681 -15.6605 -15.6527 -15.6449 -15.637 -15.6292 -15.6214 -15.6136 -15.606 -15.5984 -15.5911 -15.5839 -15.5769 -15.5702 -15.5637 -15.5575 -15.5516 -15.546 -15.5407 -15.5358 -15.5313 -15.5271 -15.5234 -15.52 -15.517 -15.5145 -15.5124 -15.5108 -15.5096 -15.5089 -15.5086 -15.5088 -15.5094 -15.5105 -15.5121 -15.5141 -15.5166 -15.5195 -15.5229 -15.5267 -15.5309 -15.5355 -15.5405 -15.5458 -15.5515 -15.5576 -15.5639 -15.5705 -15.5774 -15.5845 -15.5918 -15.5992 -15.6068 -15.6145 -15.6222 -15.6299 -15.6376 -15.6452 -15.6527 -15.66 -15.6671 -15.6739 -15.6803 -15.6864 -15.6921 -15.6973 -15.702 -15.7061 -15.7096 -15.7124 -15.7146 -15.7159 -15.7165 -15.7162 -15.7151 -15.7131 -15.7102 -15.7063 -15.7015 -15.6957 -15.689 -15.6813 -15.6725 -15.6628 -15.6522 -15.6405 -15.6279 -15.6144 -15.6 -15.5846 -15.5684 -15.5513 -15.5334 -15.5146 -15.4951 -15.4749 -15.4539 -15.4322 -15.4099 -15.3869 -15.3633 -15.3392 -15.3145 -15.2893 -15.2637 -15.2376 -15.2111 -15.1842 -15.1571 -15.1296 -15.1018 -15.0739 -15.0458 -15.0175 -14.9892 -14.9609 -14.9326 -14.9043 -14.8763 -14.8484 -14.8208 -14.7935 -14.7667 -14.7404 -14.7146 -14.6895 -14.6651 -14.6416 -14.6189 -14.5973 -14.5768 -14.5575 -14.5395 -14.5229 -14.5078 -14.4943 -14.4824 -14.4723 -14.4641 -14.4578 -14.4535 -14.4513 -14.4512 -14.4533 -14.4577 -14.4644 -14.4735 -14.4849 -14.4987 -14.5149 -14.5335 -14.5546 -14.5781 -14.6041 -14.6325 -14.6634 -14.6967 -14.7324 -14.7705 -14.811 -14.8539 -14.8992 -14.9468 -14.9968 -15.0491 -15.1037 -15.1606 -15.2198 -15.6018 -15.7373 -15.9106 -16.0481 -16.1501 -16.3889 -16.3726 -16.4092 -16.5767 -16.5824 -16.749 -16.867 -16.9099 -16.8319 -16.7848 -16.7587 -16.6921 -16.9761 -16.9891 -17.0878 -16.9802 -16.9745 -16.9158 -17.0053 -16.8294 -16.8164 -16.7902 -16.7533 -16.7078 -16.6558 -16.5989 -16.5385 -16.4755 -16.411 -16.3455 -16.2797 -16.2141 -16.1491 -16.0849 -16.0219 -15.9602 -15.9 -15.8415 -15.7847 -15.7297 -15.6765 -15.6253 -15.5759 -15.5284 -15.4829 -15.4392 -15.3973 -15.3572 -15.3189 -15.2823 -15.2474 -15.2141 -15.1824 -15.1522 -15.1234 -15.0961 -15.0701 -15.0454 -15.022 -14.9997 -14.9786 -14.9586 -14.9397 -14.9217 -14.9047 -14.8886 -14.8734 -14.859 -14.8454 -14.8326 -14.8204 -14.809 -14.7981 -14.7879 -14.7783 -14.7692 -14.7607 -14.7526 -14.745 -14.7379 -14.7312 -14.7249 -14.719 -14.7134 -14.7082 -14.7033 -14.6987 -14.6944 -14.6904 -14.6866 -14.6831 -14.6798 -14.6768 -14.6739 -14.6713 -14.6688 -14.6665 -14.6644 -14.6624 -14.6606 -14.659 -14.6574 -14.656 -14.6547 -14.6535 -14.6525 -14.6515 -14.6506 -14.6498 -14.6491 -14.6485 -14.6479 -14.6475 -14.647
-21.8445 -21.0379 -20.6385 -20.0061 -19.2687 -18.9563 -18.412 -19.0184 -19.0938 -19.2693 -19.1906 -18.7042 -18.3456 -18.4805 -19.0788 -18.6519 -18.1916 -18.1365 -17.8701 -17.4038 -17.2225 -17.466 -17.708 -17.3875 -17.1132 -16.9422 -17.1852 -17.5498 -17.5723 -17.6634 -17.1898 -17.2627 -17.259 -16.2894 -16.7013 -16.8189 -16.6134 -16.3844 -16.2232 -16.1151 -15.9888 -15.8999 -15.8582 -15.8538 -15.7777 -15.6647 -15.799 -15.6491 -15.6421 -15.6348 -15.6274 -15.6199 -15.6123 -15.6046 -15.597 -15.5894 -15.5818 -15.5744 -15.5671 -15.5599 -15.5529 -15.5462 -15.5396 -15.5333 -15.5273 -15.5215 -15.5161 -15.5109 -15.5062 -15.5017 -15.4976 -15.494 -15.4906 -15.4877 -15.4852 -15.4832 -15.4815 -15.4803 -15.4795 -15.4791 -15.4792 -15.4797 -15.4807 -15.4821 -15.4839 -15.4861 -15.4888 -15.4918 -15.4953 -15.4992 -15.5034 -15.508 -15.5129 -15.5182 -15.5237 -15.5296 -15.5357 -15.542 -15.5486 -15.5553 -15.5621 -15.5691 -15.5761 -15.5832 -15.5902 -15.5972 -15.6041 -15.6109 -15.6176 -15.624 -15.6301 -15.6359 -15.6413 -15.6464 -15.651 -15.6551 -15.6586 -15.6616 -15.6639 -15.6655 -15.6665 -15.6666 -15.6661 -15.6646 -15.6624 -15.6593 -15.6553 -15.6504 -15.6446 -15.6379 -15.6303 -15.6217 -15.6122 -15.6018 -15.5904 -15.5782 -15.5651 -15.551 -15.5362 -15.5205 -15.5039 -15.4866 -15.4685 -15.4497 -15.4301 -15.4099 -15.389 -15.3674 -15.3453 -15.3226 -15.2993 -15.2755 -15.2512 -15.2265 -15.2013 -15.1758 -15.1499 -15.1237 -15.0972 -15.0705 -15.0436 -15.0165 -14.9893 -14.9621 -14.9348 -14.9076 -14.8805 -14.8535 -14.8267 -14.8002 -14.774 -14.7483 -14.723 -14.6983 -14.6742 -14.6508 -14.6282 -14.6065 -14.5858 -14.5661 -14.5476 -14.5303 -14.5143 -14.4997 -14.4867 -14.4752 -14.4654 -14.4573 -14.451 -14.4466 -14.4442 -14.4438 -14.4455 -14.4493 -14.4553 -14.4634 -14.4738 -14.4865 -14.5014 -14.5187 -14.5383 -14.5601 -14.5843 -14.6109 -14.6397 -14.6709 -14.7044 -14.7402 -14.7784 -14.8188 -14.8615 -14.9065 -14.9538 -15.0033 -15.0551 -15.1091 -15.4145 -15.5247 -15.5875 -15.8102 -15.8564 -16.0125 -16.1695 -16.2195 -16.379 -16.4539 -16.5641 -16.6578 -16.7874 -16.8488 -16.6555 -16.6788 -16.5505 -16.8028 -16.7874 -16.9151 -16.9886 -16.8968 -16.8668 -16.7871 -16.8718 -16.6805 -16.6703 -16.6484 -16.6164 -16.5761 -16.5293 -16.4774 -16.4217 -16.3632 -16.3029 -16.2415 -16.1796 -16.1177 -16.0562 -15.9954 -15.9356 -15.8771 -15.8199 -15.7643 -15.7103 -15.6581 -15.6076 -15.5589 -15.512 -15.4669 -15.4236 -15.3822 -15.3425 -15.3045 -15.2683 -15.2336 -15.2006 -15.1692 -15.1392 -15.1107 -15.0836 -15.0578 -15.0334 -15.0102 -14.9881 -14.9672 -14.9475 -14.9287 -14.911 -14.8942 -14.8783 -14.8632 -14.849 -14.8356 -14.8229 -14.811 -14.7997 -14.789 -14.779 -14.7695 -14.7606 -14.7522 -14.7443 -14.7369 -14.7299 -14.7233 -14.7171 -14.7113 -14.7059 -14.7008 -14.696 -14.6915 -14.6873 -14.6834 -14.6797 -14.6763 -14.6731 -14.6702 -14.6674 -14.6648 -14.6624 -14.6602 -14.6582 -14.6563 -14.6545 -14.6529 -14.6514 -14.6501 -14.6488 -14.6477 -14.6467 -14.6457 -14.6449 -14.6442 -14.6435 -14.6429 -14.6424 -14.6419 -14.6415 -14.6412
-22.5251 -21.5784 -20.8816 -20.326 -19.8539 -19.3266 -18.9003 -18.5938 -18.7221 -18.9584 -19.4603 -18.7515 -18.5207 -19.1275 -18.6565 -18.7004 -18.6849 -18.1344 -17.5999 -17.363 -17.2014 -17.058 -17.0969 -16.988 -16.8859 -17.2913 -17.95 -17.8556 -18.1517 -17.9088 -17.2749 -16.8869 -16.7225 -16.5573 -16.2078 -16.5549 -16.4001 -16.2386 -16.1694 -16.0452 -15.8325 -15.8644 -15.8063 -15.6407 -15.6356 -15.6122 -15.6239 -15.6175 -15.6108 -15.6038 -15.5966 -15.5893 -15.582 -15.5746 -15.5672 -15.5598 -15.5525 -15.5453 -15.5382 -15.5312 -15.5245 -15.5179 -15.5115 -15.5054 -15.4995 -15.4939 -15.4886 -15.4837 -15.479 -15.4747 -15.4707 -15.4671 -15.4638 -15.461 -15.4585 -15.4564 -15.4547 -15.4535 -15.4526 -15.4522 -15.4521 -15.4525 -15.4533 -15.4545 -15.4561 -15.4582 -15.4606 -15.4634 -15.4665 -15.4701 -15.4739 -15.4782 -15.4827 -15.4875 -15.4926 -15.498 -15.5036 -15.5094 -15.5154 -15.5216 -15.5279 -15.5342 -15.5407 -15.5471 -15.5535 -15.5599 -15.5662 -15.5724 -15.5783 -15.5841 -15.5896 -15.5948 -15.5996 -15.6041 -15.6081 -15.6116 -15.6146 -15.6171 -15.619 -15.6202 -15.6207 -15.6206 -15.6197 -15.618 -15.6155 -15.6123 -15.6082 -15.6032 -15.5974 -15.5907 -15.5832 -15.5747 -15.5654 -15.5553 -15.5442 -15.5323 -15.5196 -15.506 -15.4916 -15.4764 -15.4604 -15.4437 -15.4262 -15.408 -15.3891 -15.3696 -15.3494 -15.3286 -15.3073 -15.2853 -15.2629 -15.2399 -15.2165 -15.1927 -15.1685 -15.1438 -15.1189 -15.0936 -15.0681 -15.0424 -15.0165 -14.9904 -14.9642 -14.938 -14.9118 -14.8856 -14.8595 -14.8335 -14.8078 -14.7823 -14.7571 -14.7324 -14.7081 -14.6843 -14.6612 -14.6387 -14.617 -14.5961 -14.5762 -14.5572 -14.5394 -14.5227 -14.5072 -14.4931 -14.4804 -14.4692 -14.4595 -14.4515 -14.4452 -14.4406 -14.4379 -14.4371 -14.4382 -14.4413 -14.4465 -14.4537 -14.463 -14.4745 -14.4881 -14.5038 -14.5218 -14.5419 -14.5643 -14.5888 -14.6156 -14.6446 -14.6757 -14.7091 -14.7447 -14.7825 -14.8225 -14.8647 -14.9091 -14.9556 -15.0043 -15.0552 -15.1793 -15.4291 -15.6124 -15.7071 -15.6817 -15.7911 -15.8952 -16.243 -16.3436 -16.6345 -16.5406 -16.5327 -16.648 -16.8613 -16.5791 -16.4882 -16.5339 -16.6373 -16.6826 -16.775 -16.7939 -16.8002 -16.6784 -16.5949 -16.6614 -16.5944 -16.5152 -16.4969 -16.4694 -16.4342 -16.3925 -16.3458 -16.2952 -16.2417 -16.1861 -16.1293 -16.0717 -16.014 -15.9565 -15.8996 -15.8435 -15.7885 -15.7348 -15.6825 -15.6317 -15.5826 -15.535 -15.4892 -15.4451 -15.4028 -15.3621 -15.3232 -15.2859 -15.2503 -15.2162 -15.1838 -15.1529 -15.1234 -15.0954 -15.0688 -15.0435 -15.0194 -14.9966 -14.975 -14.9545 -14.9351 -14.9167 -14.8993 -14.8829 -14.8673 -14.8526 -14.8387 -14.8256 -14.8132 -14.8015 -14.7905 -14.7801 -14.7704 -14.7611 -14.7525 -14.7443 -14.7366 -14.7294 -14.7226 -14.7163 -14.7103 -14.7047 -14.6994 -14.6945 -14.6899 -14.6855 -14.6815 -14.6777 -14.6742 -14.6709 -14.6679 -14.665 -14.6624 -14.6599 -14.6576 -14.6555 -14.6536 -14.6517 -14.6501 -14.6486 -14.6472 -14.6459 -14.6447 -14.6436 -14.6427 -14.6418 -14.641 -14.6403 -14.6397 -14.6391 -14.6387 -14.6383 -14.6379 -14.6376 -14.6374
-23.7641 -22.5206 -21.0981 -20.4369 -19.8452 -19.1845 -19.048 -19.1564 -18.4115 -18.4937 -19.0371 -19.2744 -18.9406 -19.1648 -19.7629 -19.0168 -18.6484 -18.1836 -17.8252 -17.3146 -17.6822 -17.3393 -16.9753 -17.3807 -17.5933 -17.6724 -18.0377 -18.8796 -18.3881 -17.6484 -17.6368 -16.9486 -17.0689 -16.5801 -16.1189 -16.1528 -16.3285 -16.1557 -15.9417 -15.8882 -15.8647 -15.7762 -15.7198 -15.6091 -15.7645 -15.5992 -15.6468 -15.5874 -15.5809 -15.5743 -15.5674 -15.5604 -15.5533 -15.5462 -15.5391 -15.532 -15.5249 -15.5179 -15.5111 -15.5043 -15.4978 -15.4914 -15.4852 -15.4793 -15.4736 -15.4682 -15.463 -15.4582 -15.4537 -15.4494 -15.4456 -15.442 -15.4388 -15.436 -15.4336 -15.4315 -15.4298 -15.4285 -15.4276 -15.4271 -15.4269 -15.4272 -15.4278 -15.4289 -15.4303 -15.4321 -15.4343 -15.4368 -15.4397 -15.4429 -15.4464 -15.4503 -15.4544 -15.4589 -15.4636 -15.4685 -15.4736 -15.4789 -15.4844 -15.4901 -15.4958 -15.5016 -15.5075 -15.5133 -15.5192 -15.525 -15.5307 -15.5362 -15.5416 -15.5468 -15.5517 -15.5563 -15.5606 -15.5645 -15.568 -15.571 -15.5735 -15.5755 -15.5769 -15.5778 -15.578 -15.5775 -15.5763 -15.5744 -15.5718 -15.5683 -15.5641 -15.5591 -15.5533 -15.5467 -15.5392 -15.531 -15.5218 -15.5119 -15.5011 -15.4896 -15.4772 -15.464 -15.4501 -15.4353 -15.4199 -15.4037 -15.3868 -15.3693 -15.3511 -15.3322 -15.3127 -15.2927 -15.2721 -15.2509 -15.2293 -15.2072 -15.1846 -15.1616 -15.1382 -15.1145 -15.0905 -15.0661 -15.0415 -15.0167 -14.9918 -14.9667 -14.9414 -14.9162 -14.8909 -14.8657 -14.8406 -14.8156 -14.7908 -14.7663 -14.7421 -14.7183 -14.6949 -14.672 -14.6497 -14.6281 -14.6071 -14.587 -14.5678 -14.5495 -14.5322 -14.516 -14.501 -14.4872 -14.4747 -14.4637 -14.4541 -14.446 -14.4396 -14.4348 -14.4317 -14.4304 -14.4309 -14.4332 -14.4375 -14.4436 -14.4518 -14.4619 -14.4741 -14.4883 -14.5046 -14.5229 -14.5433 -14.5657 -14.5903 -14.6169 -14.6457 -14.6765 -14.7094 -14.7445 -14.7816 -14.8208 -14.8621 -14.9054 -14.9508 -14.9983 -15.3326 -15.2427 -15.4376 -15.5302 -15.6941 -15.8375 -15.9157 -16.1561 -16.2015 -16.7113 -16.3194 -16.5042 -16.6067 -16.5598 -16.4598 -16.3672 -16.4256 -16.3761 -16.5751 -16.6636 -16.6747 -16.6976 -16.622 -16.4522 -16.4956 -16.5544 -16.2992 -16.3375 -16.314 -16.2835 -16.2468 -16.2053 -16.1599 -16.1115 -16.061 -16.0091 -15.9562 -15.9031 -15.85 -15.7973 -15.7453 -15.6943 -15.6444 -15.5958 -15.5486 -15.5028 -15.4586 -15.416 -15.375 -15.3355 -15.2978 -15.2616 -15.2269 -15.1939 -15.1623 -15.1322 -15.1036 -15.0763 -15.0504 -15.0258 -15.0025 -14.9803 -14.9593 -14.9394 -14.9205 -14.9027 -14.8858 -14.8699 -14.8548 -14.8406 -14.8271 -14.8145 -14.8025 -14.7912 -14.7806 -14.7706 -14.7612 -14.7523 -14.744 -14.7361 -14.7288 -14.7218 -14.7153 -14.7093 -14.7035 -14.6982 -14.6932 -14.6885 -14.6841 -14.68 -14.6761 -14.6726 -14.6692 -14.6661 -14.6632 -14.6605 -14.6581 -14.6557 -14.6536 -14.6516 -14.6498 -14.6481 -14.6466 -14.6452 -14.6439 -14.6427 -14.6416 -14.6406 -14.6397 -14.6389 -14.6382 -14.6376 -14.637 -14.6366 -14.6361 -14.6358 -14.6355 -14.6352 -14.635 -14.6349
-24.0755 -22.8605 -21.3742 -20.4785 -20.025 -19.4707 -19.4789 -18.9386 -18.7389 -18.1982 -18.3997 -18.7981 -18.9225 -18.6659 -19.4541 -18.8752 -18.3254 -17.8981 -17.5862 -17.7301 -17.6941 -17.1721 -17.2083 -17.6889 -17.8953 -17.9301 -18.6776 -18.7467 -18.4902 -18.1644 -17.7092 -17.2853 -16.8595 -16.6723 -16.3242 -15.8635 -16.1903 -16.086 -15.9791 -15.9257 -15.8752 -15.7637 -15.6735 -15.7366 -15.5747 -15.6589 -15.5646 -15.5588 -15.5528 -15.5465 -15.5399 -15.5333 -15.5265 -15.5196 -15.5128 -15.5059 -15.4991 -15.4924 -15.4858 -15.4793 -15.473 -15.4668 -15.4609 -15.4551 -15.4496 -15.4443 -15.4394 -15.4346 -15.4302 -15.4261 -15.4223 -15.4189 -15.4157 -15.413 -15.4105 -15.4085 -15.4068 -15.4054 -15.4045 -15.4039 -15.4036 -15.4038 -15.4043 -15.4052 -15.4064 -15.408 -15.4099 -15.4122 -15.4148 -15.4177 -15.421 -15.4245 -15.4283 -15.4323 -15.4366 -15.4411 -15.4458 -15.4507 -15.4557 -15.4608 -15.466 -15.4713 -15.4766 -15.482 -15.4873 -15.4925 -15.4976 -15.5026 -15.5075 -15.5121 -15.5164 -15.5205 -15.5243 -15.5277 -15.5306 -15.5332 -15.5353 -15.5369 -15.5379 -15.5384 -15.5382 -15.5375 -15.536 -15.5339 -15.5311 -15.5276 -15.5233 -15.5182 -15.5124 -15.5059 -15.4985 -15.4904 -15.4814 -15.4717 -15.4612 -15.45 -15.4379 -15.4252 -15.4117 -15.3974 -15.3825 -15.3668 -15.3505 -15.3336 -15.316 -15.2978 -15.279 -15.2596 -15.2398 -15.2194 -15.1985 -15.1772 -15.1554 -15.1332 -15.1107 -15.0878 -15.0646 -15.0412 -15.0175 -14.9936 -14.9695 -14.9453 -14.921 -14.8967 -14.8724 -14.8481 -14.8238 -14.7998 -14.7759 -14.7523 -14.7289 -14.706 -14.6834 -14.6614 -14.6399 -14.619 -14.5987 -14.5793 -14.5606 -14.5429 -14.526 -14.5103 -14.4956 -14.4821 -14.4698 -14.4588 -14.4492 -14.441 -14.4344 -14.4292 -14.4256 -14.4237 -14.4235 -14.425 -14.4283 -14.4334 -14.4403 -14.449 -14.4597 -14.4723 -14.4867 -14.5031 -14.5215 -14.5418 -14.564 -14.5882 -14.6144 -14.6426 -14.6727 -14.7048 -14.7389 -14.7749 -14.813 -14.8529 -14.8948 -14.9387 -15.2158 -15.0321 -15.0815 -15.1861 -15.4392 -15.5599 -15.8154 -16.0336 -16.091 -16.4639 -16.3143 -16.2669 -16.4753 -16.4449 -16.425 -16.3524 -16.2503 -16.1973 -16.3363 -16.4905 -16.5848 -16.4777 -16.4554 -16.2967 -16.3275 -16.384 -16.291 -16.1718 -16.152 -16.1258 -16.094 -16.0575 -16.0173 -15.9741 -15.9288 -15.8819 -15.8341 -15.7858 -15.7374 -15.6893 -15.6418 -15.595 -15.5492 -15.5046 -15.4613 -15.4192 -15.3786 -15.3394 -15.3018 -15.2656 -15.2309 -15.1977 -15.1659 -15.1356 -15.1067 -15.0792 -15.053 -15.0281 -15.0045 -14.9821 -14.9608 -14.9406 -14.9215 -14.9034 -14.8864 -14.8702 -14.8549 -14.8405 -14.8269 -14.8141 -14.802 -14.7906 -14.7799 -14.7698 -14.7602 -14.7513 -14.7429 -14.735 -14.7276 -14.7206 -14.7141 -14.708 -14.7022 -14.6968 -14.6918 -14.6871 -14.6827 -14.6786 -14.6748 -14.6712 -14.6679 -14.6648 -14.6619 -14.6592 -14.6568 -14.6545 -14.6523 -14.6504 -14.6486 -14.6469 -14.6454 -14.644 -14.6427 -14.6416 -14.6405 -14.6395 -14.6387 -14.6379 -14.6372 -14.6366 -14.6361 -14.6356 -14.6352 -14.6348 -14.6346 -14.6343 -14.6341 -14.634 -14.6339 -14.6339
-25.2171 -22.8943 -21.1921 -20.3602 -19.8029 -19.6283 -19.5325 -18.7062 -18.5811 -18.4867 -18.2507 -18.8241 -19.1147 -18.3643 -18.8269 -19.5571 -18.5779 -18.1245 -17.894 -17.7761 -17.8197 -17.7414 -17.432 -17.8302 -18.5265 -18.2584 -18.8155 -18.5739 -17.9821 -17.9102 -17.4013 -17.0174 -16.7816 -16.3973 -16.1514 -15.971 -16.0455 -15.6221 -15.5938 -15.8073 -15.7454 -15.6746 -15.6785 -15.5506 -15.5468 -15.5423 -15.5374 -15.5321 -15.5264 -15.5204 -15.5142 -15.5079 -15.5014 -15.4949 -15.4883 -15.4818 -15.4753 -15.4688 -15.4624 -15.4562 -15.4501 -15.4442 -15.4384 -15.4329 -15.4275 -15.4224 -15.4176 -15.413 -15.4087 -15.4048 -15.4011 -15.3977 -15.3946 -15.3919 -15.3895 -15.3874 -15.3857 -15.3844 -15.3833 -15.3827 -15.3824 -15.3824 -15.3828 -15.3835 -15.3846 -15.3859 -15.3877 -15.3897 -15.392 -15.3947 -15.3976 -15.4008 -15.4042 -15.4079 -15.4118 -15.4159 -15.4202 -15.4246 -15.4292 -15.4338 -15.4386 -15.4434 -15.4482 -15.453 -15.4578 -15.4625 -15.4671 -15.4716 -15.4759 -15.48 -15.4839 -15.4874 -15.4907 -15.4936 -15.4962 -15.4983 -15.5 -15.5012 -15.5018 -15.502 -15.5015 -15.5005 -15.4989 -15.4966 -15.4936 -15.4899 -15.4856 -15.4805 -15.4747 -15.4682 -15.4609 -15.4529 -15.4442 -15.4347 -15.4245 -15.4135 -15.4019 -15.3895 -15.3764 -15.3626 -15.3481 -15.333 -15.3172 -15.3009 -15.2839 -15.2663 -15.2482 -15.2295 -15.2103 -15.1907 -15.1705 -15.1499 -15.129 -15.1076 -15.0858 -15.0638 -15.0414 -15.0188 -14.996 -14.9729 -14.9497 -14.9264 -14.903 -14.8795 -14.856 -14.8326 -14.8093 -14.786 -14.763 -14.7402 -14.7177 -14.6955 -14.6737 -14.6524 -14.6316 -14.6114 -14.5918 -14.5729 -14.5547 -14.5374 -14.521 -14.5056 -14.4912 -14.4778 -14.4656 -14.4547 -14.445 -14.4366 -14.4296 -14.424 -14.4199 -14.4173 -14.4163 -14.4169 -14.4191 -14.423 -14.4286 -14.4359 -14.445 -14.4558 -14.4684 -14.4828 -14.499 -14.517 -14.5369 -14.5586 -14.5821 -14.6075 -14.6347 -14.6637 -14.6946 -14.7274 -14.762 -14.7984 -14.8366 -15.2363 -15.0617 -14.962 -15.0073 -15.0542 -15.3519 -15.3981 -15.5091 -15.8302 -15.9111 -16.0234 -16.3406 -16.1001 -16.3799 -16.2653 -16.5249 -16.3365 -16.1586 -16.0308 -16.0912 -16.1904 -16.3499 -16.4181 -16.3191 -16.1227 -16.1342 -16.1742 -16.1897 -16.0014 -15.9849 -15.9627 -15.9354 -15.9038 -15.8686 -15.8307 -15.7906 -15.7489 -15.7062 -15.663 -15.6196 -15.5763 -15.5334 -15.4912 -15.4499 -15.4095 -15.3703 -15.3322 -15.2955 -15.26 -15.2259 -15.1932 -15.1618 -15.1318 -15.1031 -15.0758 -15.0497 -15.025 -15.0014 -14.979 -14.9578 -14.9377 -14.9186 -14.9005 -14.8835 -14.8674 -14.8521 -14.8377 -14.8242 -14.8114 -14.7993 -14.788 -14.7773 -14.7672 -14.7578 -14.7489 -14.7406 -14.7327 -14.7254 -14.7185 -14.7121 -14.706 -14.7004 -14.6951 -14.6901 -14.6855 -14.6812 -14.6772 -14.6734 -14.6699 -14.6667 -14.6637 -14.6609 -14.6583 -14.6559 -14.6536 -14.6516 -14.6497 -14.648 -14.6464 -14.6449 -14.6436 -14.6423 -14.6412 -14.6402 -14.6393 -14.6385 -14.6378 -14.6372 -14.6366 -14.6361 -14.6357 -14.6353 -14.635 -14.6348 -14.6346 -14.6344 -14.6343 -14.6343 -14.6343 -14.6343 -14.6343
-22.881 -21.6309 -20.7883 -19.945 -19.61 -19.818 -19.145 -18.6417 -18.5331 -18.4009 -17.8816 -18.2504 -18.4723 -18.1151 -18.7589 -19.2492 -18.4864 -18.0757 -17.984 -18.0572 -17.8519 -18.0305 -17.8148 -17.957 -18.4601 -19.4924 -18.5155 -18.0311 -18.1925 -17.5242 -17.2896 -16.8472 -16.6077 -16.3822 -16.1393 -15.9854 -16.0069 -15.921 -15.8182 -15.7973 -15.5301 -15.5289 -15.5269 -15.524 -15.5206 -15.5165 -15.512 -15.507 -15.5017 -15.4961 -15.4903 -15.4843 -15.4781 -15.4719 -15.4657 -15.4594 -15.4532 -15.447 -15.4409 -15.4349 -15.429 -15.4233 -15.4178 -15.4124 -15.4073 -15.4024 -15.3977 -15.3933 -15.3891 -15.3852 -15.3816 -15.3783 -15.3754 -15.3727 -15.3703 -15.3683 -15.3665 -15.3651 -15.3641 -15.3633 -15.3629 -15.3629 -15.3631 -15.3637 -15.3646 -15.3658 -15.3673 -15.3691 -15.3712 -15.3736 -15.3762 -15.3791 -15.3822 -15.3856 -15.3891 -15.3928 -15.3967 -15.4007 -15.4048 -15.4091 -15.4134 -15.4177 -15.4221 -15.4264 -15.4307 -15.4349 -15.4391 -15.443 -15.4469 -15.4505 -15.4539 -15.457 -15.4598 -15.4623 -15.4644 -15.4661 -15.4674 -15.4683 -15.4686 -15.4685 -15.4677 -15.4665 -15.4646 -15.4621 -15.459 -15.4553 -15.4509 -15.4458 -15.44 -15.4336 -15.4264 -15.4185 -15.41 -15.4007 -15.3908 -15.3801 -15.3687 -15.3567 -15.344 -15.3307 -15.3167 -15.3021 -15.2868 -15.271 -15.2546 -15.2376 -15.2201 -15.2021 -15.1836 -15.1646 -15.1452 -15.1253 -15.1051 -15.0845 -15.0635 -15.0422 -15.0207 -14.9989 -14.9768 -14.9546 -14.9322 -14.9097 -14.8871 -14.8645 -14.8418 -14.8192 -14.7966 -14.7742 -14.752 -14.7299 -14.7082 -14.6867 -14.6656 -14.645 -14.6248 -14.6052 -14.5861 -14.5677 -14.55 -14.5331 -14.517 -14.5018 -14.4876 -14.4744 -14.4622 -14.4511 -14.4412 -14.4325 -14.4251 -14.419 -14.4143 -14.411 -14.4091 -14.4087 -14.4098 -14.4125 -14.4167 -14.4225 -14.4299 -14.4389 -14.4496 -14.4619 -14.4759 -14.4916 -14.5089 -14.528 -14.5488 -14.5712 -14.5954 -14.6213 -14.6489 -14.6782 -14.7092 -14.7419 -14.7762 -14.7589 -15.0076 -14.8993 -14.9302 -14.9726 -15.1054 -15.5405 -15.6389 -15.7776 -16.1878 -16.0084 -16.2682 -16.0688 -16.3522 -16.2556 -16.504 -16.1402 -16.019 -16.1615 -16.0578 -16.0935 -16.1623 -16.1719 -16.1618 -15.9845 -15.9389 -15.9789 -15.9972 -15.8271 -15.8137 -15.7952 -15.7721 -15.7452 -15.715 -15.6821 -15.6473 -15.6109 -15.5734 -15.5354 -15.497 -15.4588 -15.4208 -15.3834 -15.3467 -15.3108 -15.2759 -15.2421 -15.2094 -15.1779 -15.1476 -15.1185 -15.0907 -15.0641 -15.0387 -15.0145 -14.9914 -14.9695 -14.9488 -14.929 -14.9104 -14.8927 -14.8759 -14.8601 -14.8452 -14.8311 -14.8178 -14.8053 -14.7935 -14.7825 -14.772 -14.7622 -14.753 -14.7444 -14.7363 -14.7287 -14.7216 -14.7149 -14.7086 -14.7028 -14.6974 -14.6923 -14.6875 -14.6831 -14.679 -14.6751 -14.6715 -14.6682 -14.6652 -14.6623 -14.6597 -14.6572 -14.655 -14.6529 -14.651 -14.6492 -14.6476 -14.6461 -14.6448 -14.6436 -14.6425 -14.6415 -14.6406 -14.6398 -14.6391 -14.6384 -14.6379 -14.6374 -14.637 -14.6366 -14.6363 -14.6361 -14.6359 -14.6358 -14.6357 -14.6357 -14.6357 -14.6357 -14.6358 -14.6359 -14.636 -14.6362
-20.7225 -20.4357 -19.9664 -19.9984 -19.4572 -19.6137 -19.1621 -18.9741 -19.0955 -18.7531 -18.4791 -17.8802 -18.1992 -17.786 -18.8444 -18.9366 -18.7515 -18.3057 -18.1626 -17.9891 -17.9977 -18.1213 -18.4851 -18.4158 -18.899 -18.6986 -18.8557 -18.4261 -17.8489 -17.4819 -17.1028 -16.8071 -16.5306 -16.2708 -16.0968 -15.9417 -15.856 -15.8412 -15.7378 -15.6822 -15.7023 -15.5041 -15.5024 -15.4999 -15.4968 -15.4931 -15.489 -15.4844 -15.4794 -15.4742 -15.4687 -15.4631 -15.4573 -15.4514 -15.4455 -15.4395 -15.4336 -15.4277 -15.4218 -15.4161 -15.4105 -15.405 -15.3997 -15.3945 -15.3896 -15.3848 -15.3803 -15.376 -15.372 -15.3682 -15.3647 -15.3615 -15.3586 -15.356 -15.3536 -15.3516 -15.3499 -15.3485 -15.3474 -15.3466 -15.3461 -15.3459 -15.3461 -15.3465 -15.3472 -15.3483 -15.3496 -15.3512 -15.353 -15.3551 -15.3575 -15.3601 -15.3629 -15.3659 -15.3691 -15.3725 -15.376 -15.3796 -15.3833 -15.3871 -15.391 -15.3949 -15.3988 -15.4027 -15.4066 -15.4104 -15.414 -15.4176 -15.4209 -15.4241 -15.4271 -15.4298 -15.4322 -15.4342 -15.436 -15.4373 -15.4383 -15.4388 -15.4388 -15.4384 -15.4375 -15.436 -15.4339 -15.4313 -15.4281 -15.4242 -15.4198 -15.4147 -15.409 -15.4026 -15.3955 -15.3878 -15.3794 -15.3704 -15.3606 -15.3503 -15.3392 -15.3276 -15.3153 -15.3023 -15.2888 -15.2746 -15.2599 -15.2446 -15.2288 -15.2124 -15.1955 -15.1781 -15.1602 -15.1419 -15.1231 -15.104 -15.0844 -15.0646 -15.0443 -15.0238 -15.003 -14.9819 -14.9607 -14.9392 -14.9176 -14.8959 -14.874 -14.8522 -14.8303 -14.8084 -14.7866 -14.765 -14.7434 -14.7221 -14.701 -14.6802 -14.6598 -14.6397 -14.6201 -14.601 -14.5824 -14.5645 -14.5472 -14.5305 -14.5147 -14.4997 -14.4855 -14.4723 -14.4601 -14.4488 -14.4387 -14.4296 -14.4218 -14.4151 -14.4097 -14.4056 -14.4027 -14.4013 -14.4012 -14.4025 -14.4053 -14.4095 -14.4152 -14.4223 -14.431 -14.4412 -14.4529 -14.4662 -14.4809 -14.4973 -14.5152 -14.5347 -14.5557 -14.5783 -14.6024 -14.6282 -14.6554 -14.6843 -14.7146 -14.7465 -14.7606 -14.8148 -14.8512 -14.8711 -15.2114 -15.4985 -15.6008 -15.731 -15.8521 -15.9191 -15.9507 -15.8572 -16.0255 -16.169 -16.1267 -15.9207 -15.9081 -16.1096 -15.8947 -15.926 -15.9733 -15.9983 -16.0181 -15.8603 -15.7955 -15.835 -15.8698 -15.81 -15.64 -15.6249 -15.6058 -15.5834 -15.5579 -15.5301 -15.5004 -15.4693 -15.4371 -15.4043 -15.3712 -15.3381 -15.3052 -15.2727 -15.2408 -15.2097 -15.1793 -15.1499 -15.1215 -15.0942 -15.0679 -15.0426 -15.0185 -14.9955 -14.9735 -14.9526 -14.9327 -14.9138 -14.896 -14.879 -14.863 -14.8479 -14.8336 -14.8202 -14.8075 -14.7955 -14.7843 -14.7737 -14.7638 -14.7545 -14.7458 -14.7376 -14.7299 -14.7227 -14.716 -14.7098 -14.7039 -14.6984 -14.6933 -14.6886 -14.6842 -14.6801 -14.6763 -14.6727 -14.6695 -14.6664 -14.6636 -14.661 -14.6586 -14.6564 -14.6544 -14.6526 -14.6509 -14.6493 -14.6479 -14.6466 -14.6455 -14.6444 -14.6435 -14.6427 -14.6419 -14.6413 -14.6407 -14.6402 -14.6398 -14.6395 -14.6392 -14.6389 -14.6388 -14.6386 -14.6386 -14.6385 -14.6385 -14.6386 -14.6387 -14.6388 -14.6389 -14.6391 -14.6393 -14.6395 -14.6398 -14.64
