ncols 336
nrows 31
xllcorner -98.1166636171
yllcorner 32.6333325765
cellsize 0.0833333333
NODATA_value -9999
-28.1316 -27.8291 -27.4836 -27.692 -28.1369 -28.0688 -28.175 -27.1696 -27.3235 -27.4399 -26.7683 -26.5788 -26.6967 -26.8802 -26.3182 -26.1627 -25.8757 -25.9579 -25.6855 -25.8646 -25.6786 -25.1474 -24.85 -24.7702 -25.0023 -24.9284 -24.705 -24.7288 -24.3173 -24.5043 -23.9163 -24.749 -25.105 -24.4425 -25.6044 -23.963 -24.0567 -23.8316 -23.8885 -24.0696 -23.6632 -23.6482 -23.2315 -23.023 -24.0681 -24.4429 -24.0882 -23.4664 -23.7524 -25.6967 -24.5219 -24.392 -25.2974 -24.54 -28.5028 -27.1965 -28.6276 -26.3584 -29.0228 -23.3744 -22.3852 -22.576 -22.5858 -22.2094 -22.1713 -22.3334 -22.5661 -22.2675 -22.5026 -22.5356 -22.9089 -22.5775 -22.8412 -23.9139 -23.2109 -22.12 -22.5808 -21.8464 -21.7286 -21.6087 -21.7222 -21.6259 -21.5716 -21.6301 -21.5706 -21.7258 -21.6675 -21.6867 -21.8547 -22.7514 -21.5904 -21.6106 -21.6104 -21.6293 -21.727 -21.7059 -21.6871 -21.8128 -22.2518 -22.2597 -22.2392 -22.6049 -22.2268 -22.4348 -22.667 -22.7812 -23.1964 -23.5884 -24.0129 -23.2449 -22.9614 -22.8099 -23.0289 -22.924 -23.4764 -23.7805 -23.536 -23.2144 -22.7211 -22.8647 -23.3562 -24.4787 -23.7804 -24.9877 -24.9885 -26.5984 -25.6999 -25.4998 -25.1995 -25.8247 -26.1539 -26.0351 -24.5806 -25.0343 -25.9237 -25.3204 -25.7114 -24.735 -24.6074 -25.8911 -24.7781 -26.3376 -26.017 -25.774 -25.9507 -26.3203 -31.5418 -31.9922 -30.4114 -31.6819 -29.6379 -31.4824 -24.7915 -32.2813 -31.4375 -24.606 -25.1346 -25.4339 -26.2353 -24.8904 -25.405 -24.953 -25.0557 -30.3023 -27.3323 -29.2692 -31.2152 -32.3359 -34.3618 -38.3005 -40.9164 -34.6896 -33.831 -42.0731 -40.1219 -41.9347 -34.089 -32.8145 -37.7075 -44.0669 -39.2706 -39.6554 -41.233 -38.0295 -37.053 -33.1755 -34.2172 -39.8403 -34.7083 -34.4622 -30.8863 -26.2983 -26.3625 -26.3017 -25.9724 -24.9361 -24.8618 -24.8813 -24.8343 -25.1679 -24.6686 -26.2204 -26.0698 -24.6942 -24.6484 -24.3818 -24.7031 -24.5391 -24.5711 -24.9516 -24.8397 -23.6945 -24.0571 -23.374 -23.0889 -23.4654 -22.495 -22.2776 -22.6924 -22.7006 -23.6887 -23.9395 -23.591 -23.5534 -22.9235 -22.8318 -22.5733 -21.9635 -21.9147 -22.1359 -21.6472 -21.5718 -21.2753 -21.0877 -21.1861 -21.5695 -21.5534 -21.5174 -21.5137 -21.4371 -21.2598 -21.3577 -21.4167 -21.3385 -20.7746 -20.6968 -20.8715 -20.7764 -20.758 -20.7824 -20.6479 -20.7221 -20.5107 -20.5855 -20.781 -20.7038 -20.5897 -20.5468 -20.4937 -20.4334 -20.4327 -20.4327 -20.4327 -20.4327 -20.4327 -20.4327 -20.4327 -20.4327 -20.4327 -20.4327 -20.4327 -20.4327 -20.4327 -20.4327 -20.4327 -20.4327 -20.4327 -20.4327 -20.4327 -20.4327 -20.4327 -20.4327 -20.4327 -20.4327 -20.4327 -20.4327 -20.4327 -20.4327 -20.4327 -20.4327 -20.4327 -20.4327 -20.4327 -20.4327 -20.4327 -20.4327 -20.4327 -20.4327 -20.4327 -20.4327 -20.4327 -20.4327 -20.4327 -20.4327 -20.4327 -20.4327 -20.4327 -20.4327 -20.4327 -20.4327 -20.4327 -20.4327 -20.4327 -20.4327 -20.4327 -20.4327 -20.4327 -20.4327 -20.4327 -20.4327 -20.4327 -20.4327 -20.4327 -20.4327 -20.4327 -20.4327 -20.4327 -20.4327 -20.4327 -20.4327 -20.4327 -20.4327 -20.4327 -20.4327 -20.4327 -20.4327
-27.3853 -26.9342 -27.2847 -27.532 -27.682 -28.2994 -27.6233 -27.4652 -27.0946 -27.1866 -27.3761 -26.923 -26.8863 -26.2559 -26.2726 -25.9169 -26.1126 -25.5245 -25.5905 -25.8554 -25.413 -25.0066 -25.1568 -25.2583 -25.938 -25.0481 -25.393 -24.5812 -24.1538 -24.6193 -24.2293 -24.3629 -24.9887 -25.0124 -24.1782 -23.6648 -23.4251 -23.9727 -23.9204 -23.3165 -23.3534 -23.1494 -22.9885 -23.3022 -23.9798 -24.5467 -24.4571 -24.6891 -24.6282 -23.4533 -23.536 -23.0221 -23.3874 -23.6813 -23.8896 -23.399 -23.261 -23.6327 -22.4392 -22.6547 -22.2225 -22.1656 -22.214 -25.9463 -22.0673 -22.1999 -21.9749 -22.1671 -22.5352 -22.4904 -22.779 -22.9803 -22.5198 -22.5165 -22.2985 -22.0299 -21.6468 -21.5283 -21.5689 -21.3973 -21.6235 -21.4282 -21.549 -21.4718 -21.4324 -21.5632 -21.6589 -21.5849 -21.9094 -22.537 -21.4715 -21.4702 -21.4698 -21.4692 -21.4897 -21.5287 -21.4885 -21.8211 -22.0445 -22.1196 -22.1481 -22.1657 -22.6271 -22.5298 -22.9002 -23.0565 -23.323 -23.3423 -23.8109 -23.15 -23.0032 -22.8199 -23.004 -22.9979 -23.3317 -23.2321 -23.2174 -22.8358 -22.5935 -23.6863 -24.1435 -24.5308 -25.0779 -25.5169 -25.5868 -25.761 -25.4752 -24.3874 -24.6075 -25.7764 -25.3406 -25.4671 -26.1014 -24.2856 -24.2372 -24.602 -25.299 -24.2007 -24.3105 -24.6218 -24.4948 -24.7284 -25.6134 -25.9318 -26.1467 -26.1141 -28.7894 -29.7404 -28.0756 -25.4296 -30.449 -24.5595 -31.1384 -28.5179 -25.2366 -24.316 -24.4471 -24.561 -25.446 -25.6948 -25.92 -24.9953 -27.445 -26.8968 -29.3033 -31.6764 -30.2773 -29.7206 -30.3258 -31.7634 -30.5169 -37.3058 -41.5255 -44.9136 -39.8469 -45.3731 -36.801 -32.9294 -35.7283 -42.6664 -43.2125 -41.0769 -41.2753 -36.3893 -34.0872 -38.2996 -37.8181 -29.6185 -29.0098 -30.0745 -28.9342 -25.971 -25.9962 -25.7373 -25.6971 -25.266 -25.8868 -25.4688 -24.8858 -24.214 -24.6504 -25.4945 -25.1475 -24.7593 -24.2232 -23.8317 -24.0426 -24.1612 -24.2282 -24.3341 -24.1485 -23.503 -23.5343 -23.4419 -22.7095 -22.4402 -22.3874 -22.1631 -21.7397 -21.8081 -22.6902 -23.5434 -23.1922 -22.6157 -22.8529 -23.3011 -22.386 -22.7174 -22.1509 -22.229 -21.8067 -21.6285 -20.8913 -21.1958 -21.1005 -21.3573 -21.3708 -21.0821 -21.2423 -21.2579 -21.1046 -21.0827 -21.2202 -21.011 -21.042 -21.0074 -21.0299 -20.7391 -20.6215 -20.7151 -20.5987 -20.5671 -20.5415 -20.3118 -20.4869 -20.5234 -20.4271 -20.3114 -20.4245 -20.3118 -20.3118 -20.3118 -20.3118 -20.3118 -20.3118 -20.3118 -20.3118 -20.3118 -20.3118 -20.3118 -20.3118 -20.3118 -20.3118 -20.3118 -20.3118 -20.3118 -20.3118 -20.3118 -20.3118 -20.3118 -20.3118 -20.3118 -20.3118 -20.3118 -20.3118 -20.3118 -20.3118 -20.3118 -20.3118 -20.3118 -20.3118 -20.3118 -20.3118 -20.3118 -20.3118 -20.3118 -20.3118 -20.3118 -20.3118 -20.3118 -20.3118 -20.3118 -20.3118 -20.3118 -20.3118 -20.3118 -20.3118 -20.3118 -20.3118 -20.3118 -20.3118 -20.3118 -20.3118 -20.3118 -20.3118 -20.3118 -20.3118 -20.3118 -20.3118 -20.3118 -20.3118 -20.3118 -20.3118 -20.3118 -20.3118 -20.3118 -20.3118 -20.3118 -20.3118 -20.3118 -20.3118 -20.3118 -20.3118 -20.3118 -20.3118 -20.3118
-28.0154 -27.4724 -26.7913 -26.8753 -27.0057 -27.3684 -27.619 -27.3502 -26.6837 -27.0137 -26.7001 -26.9677 -26.7201 -26.0059 -25.8926 -25.9728 -25.7597 -25.4101 -25.7555 -25.9435 -25.1997 -25.1353 -25.5423 -25.6247 -25.3694 -25.5467 -24.4324 -24.3861 -24.5438 -24.1485 -24.2348 -24.5752 -24.4353 -25.6575 -26.4032 -25.137 -25.57 -25.8476 -25.5104 -23.8969 -25.918 -25.6571 -23.6757 -23.1716 -26.5415 -26.5385 -24.1434 -24.3554 -23.5735 -24.3447 -23.9396 -23.6279 -24.4889 -26.9504 -25.6852 -26.101 -22.8679 -22.3901 -24.5429 -22.1756 -22.2241 -22.8626 -23.6962 -22.9659 -22.1915 -22.6068 -22.8329 -21.7602 -22.2392 -22.0362 -21.9794 -22.285 -22.0647 -21.9164 -21.6221 -21.4484 -21.4083 -21.3298 -21.2931 -21.3142 -21.4266 -21.2159 -21.2953 -21.367 -21.404 -21.3896 -21.4484 -21.45 -21.863 -21.6778 -21.3311 -21.3318 -21.3305 -21.3509 -21.3521 -21.3909 -21.5481 -21.8809 -21.7641 -21.9043 -22.103 -22.2549 -22.1903 -22.075 -22.2643 -22.4435 -22.809 -23.6825 -23.5361 -23.4862 -23.2183 -22.6999 -22.5677 -22.9911 -22.8022 -22.7555 -23.1623 -23.3535 -22.5784 -23.3771 -23.9074 -24.3905 -24.2614 -25.2944 -25.5231 -25.4001 -24.2503 -24.7375 -24.8786 -25.2341 -25.2847 -24.8255 -24.8753 -25.0178 -24.3564 -23.9242 -24.93 -25.0899 -25.7188 -25.7612 -25.4635 -25.544 -25.6335 -25.5626 -27.3212 -30.9293 -26.9644 -27.3959 -29.2618 -24.5011 -24.0821 -25.7179 -27.9429 -29.8414 -24.3208 -24.1981 -24.7046 -25.2961 -25.4471 -25.2385 -25.1401 -25.7062 -27.2247 -29.413 -29.2686 -30.5016 -33.5012 -32.1037 -31.016 -31.7583 -30.3121 -31.6991 -31.4548 -35.2007 -36.5836 -44.9861 -43.602 -32.8606 -41.5338 -42.4808 -37.5926 -39.5594 -31.5703 -30.2124 -32.1863 -33.5934 -27.3075 -27.5351 -26.7858 -26.0195 -26.366 -25.6765 -26.3468 -25.5526 -25.4383 -24.9227 -25.2351 -24.1933 -25.0393 -23.923 -23.4666 -23.8391 -24.323 -24.589 -24.2449 -23.6714 -23.9623 -23.5653 -23.9072 -24.2602 -24.0134 -23.7329 -23.1759 -23.1098 -23.2323 -22.5653 -21.705 -21.6195 -21.8686 -21.4375 -22.7416 -22.4503 -22.5891 -22.3974 -21.9276 -22.4719 -22.0704 -21.8634 -21.5897 -21.553 -21.4292 -20.8232 -20.8607 -20.9851 -21.0777 -21.1638 -21.1989 -21.0506 -21.025 -21.0371 -21.0989 -21.1039 -20.7133 -20.658 -20.8627 -20.8331 -20.7977 -20.6004 -20.3658 -20.4247 -20.2906 -20.4862 -20.4552 -20.3422 -20.1925 -20.4259 -20.3076 -20.2893 -20.1925 -20.1925 -20.1925 -20.1925 -20.1925 -20.1925 -20.1925 -20.1925 -20.1925 -20.1925 -20.1925 -20.1925 -20.1925 -20.1925 -20.1925 -20.1925 -20.1925 -20.1925 -20.1925 -20.1925 -20.1925 -20.1925 -20.1925 -20.1925 -20.1925 -20.1925 -20.1925 -20.1925 -20.1925 -20.1925 -20.1925 -20.1925 -20.1925 -20.1925 -20.1925 -20.1925 -20.1925 -20.1925 -20.1925 -20.1925 -20.1925 -20.1925 -20.1925 -20.1925 -20.1925 -20.1925 -20.1925 -20.1925 -20.1925 -20.1925 -20.1925 -20.1925 -20.1925 -20.1925 -20.1925 -20.1925 -20.1925 -20.1925 -20.1925 -20.1925 -20.1925 -20.1925 -20.1925 -20.1925 -20.1925 -20.1925 -20.1925 -20.1925 -20.1925 -20.1925 -20.1925 -20.1925 -20.1925 -20.1925 -20.1925 -20.1925 -20.1925 -20.1925
-28.343 -27.3871 -27.0297 -26.39 -26.1989 -26.7018 -27.1538 -26.691 -26.4756 -26.836 -26.1219 -26.3208 -26.1072 -26.0878 -25.8986 -26.2555 -25.8878 -25.7027 -25.6512 -25.0695 -24.9223 -24.698 -24.5326 -24.2653 -24.7379 -25.0117 -24.4381 -24.5295 -24.321 -24.9527 -23.6171 -25.2336 -25.9026 -26.0567 -25.9447 -26.4223 -27.7443 -24.7853 -25.6709 -23.9976 -23.2993 -23.0382 -22.9477 -23.87 -24.051 -31.8564 -31.6381 -29.1904 -25.5327 -25.7145 -27.4036 -27.3394 -28.6553 -23.6096 -25.8269 -26.8028 -26.2107 -22.4842 -22.3773 -22.5769 -23.381 -23.0792 -21.9901 -21.7447 -22.16 -21.8585 -23.299 -21.9336 -22.182 -21.7191 -22.1596 -21.9684 -22.283 -21.7865 -21.9401 -21.7311 -21.601 -21.3573 -21.2757 -21.2571 -21.1569 -21.0652 -21.1408 -21.1376 -21.2373 -21.2572 -21.295 -21.2753 -21.3307 -21.3039 -21.179 -21.178 -21.2176 -21.1993 -21.2537 -21.2361 -21.6472 -21.6041 -22.0624 -22.3023 -22.3771 -22.3191 -22.3753 -22.7423 -22.7875 -22.7654 -22.8276 -22.49 -23.6651 -23.6765 -23.4454 -22.7559 -22.6345 -23.1361 -22.3171 -23.1015 -22.994 -22.7248 -23.9265 -23.3906 -23.4729 -24.207 -24.4657 -24.812 -23.9525 -24.2489 -24.4035 -24.2433 -24.3495 -24.5015 -24.6208 -24.833 -24.4355 -24.2391 -24.7211 -25.3925 -25.0982 -25.1978 -25.088 -24.6006 -24.9566 -27.0948 -29.2753 -26.0633 -29.9802 -27.8155 -29.0184 -28.746 -24.5461 -23.6645 -29.0802 -28.7273 -27.41 -27.6015 -24.2412 -24.1531 -24.5456 -25.5536 -25.7849 -24.7948 -24.6806 -27.2085 -28.5058 -31.6121 -32.6414 -29.7813 -30.6438 -30.8034 -31.176 -31.4353 -32.5244 -31.091 -32.3955 -33.215 -38.2157 -35.7745 -38.6562 -32.7707 -44.0719 -32.8438 -34.9087 -31.244 -28.0365 -26.0997 -27.5519 -28.1237 -27.3345 -25.892 -26.4007 -26.0282 -25.8209 -25.1549 -25.2962 -25.0082 -25.1906 -24.6136 -23.8868 -24.0553 -23.5527 -23.2333 -23.276 -23.0862 -23.4823 -24.0473 -23.9513 -23.9803 -23.4438 -23.1695 -23.5639 -23.3795 -23.8772 -23.5633 -23.3321 -23.276 -22.6397 -22.2057 -21.969 -22.2325 -22.6437 -21.4419 -22.0973 -21.8 -21.9581 -22.5287 -22.4006 -21.611 -21.8117 -21.5104 -21.2187 -21.1878 -20.9145 -20.8981 -20.5068 -20.8708 -20.6772 -20.7732 -20.9546 -20.5651 -20.9133 -20.7703 -20.7811 -20.9118 -20.6767 -20.4292 -20.4942 -20.5279 -20.4678 -20.5056 -20.3917 -20.3903 -20.3121 -20.1916 -20.2167 -20.35 -20.2917 -20.0601 -20.0601 -20.0601 -20.2145 -20.1566 -20.0792 -20.0601 -20.118 -20.0601 -20.0601 -20.0601 -20.0601 -20.0601 -20.0601 -20.0601 -20.0601 -20.0601 -20.0601 -20.0601 -20.0601 -20.0601 -20.0601 -20.0601 -20.0601 -20.0601 -20.0601 -20.0601 -20.0601 -20.0601 -20.0601 -20.0601 -20.0601 -20.0601 -20.0601 -20.0601 -20.0601 -20.0601 -20.0601 -20.0601 -20.0601 -20.0601 -20.0601 -20.0601 -20.0601 -20.0601 -20.0601 -20.0601 -20.0601 -20.0601 -20.0601 -20.0601 -20.0601 -20.0601 -20.0601 -20.0601 -20.0601 -20.0601 -20.0601 -20.0601 -20.0601 -20.0601 -20.0601 -20.0601 -20.0601 -20.0601 -20.0601 -20.0601 -20.0601 -20.0601 -20.0601 -20.0601 -20.0601 -20.0601 -20.0601 -20.0601 -20.0601 -20.0601 -20.0601 -20.0601 -20.0601 -20.0601
-27.9808 -27.4597 -27.0853 -27.0416 -26.8051 -26.1581 -26.6159 -26.066 -26.0579 -25.9182 -26.2059 -26.073 -26.1283 -26.0128 -26.3199 -26.2031 -25.6455 -25.7522 -25.226 -24.7935 -25.2128 -25.2314 -25.3405 -24.9022 -24.8376 -24.8206 -24.3165 -24.2612 -24.5828 -24.2102 -24.2821 -23.7116 -24.5747 -24.0092 -24.8929 -24.6418 -24.3154 -23.7432 -24.2587 -24.0513 -23.4691 -23.0155 -23.5475 -26.4441 -23.5555 -23.5559 -26.5501 -25.22 -24.0016 -24.3237 -25.5722 -27.4911 -25.4244 -23.034 -22.6639 -23.1252 -25.8695 -26.3529 -25.9789 -24.9375 -23.723 -23.1998 -25.5339 -25.9881 -22.9311 -22.2727 -21.6981 -21.695 -21.4112 -21.676 -22.2935 -21.8082 -21.8743 -21.59 -21.5156 -21.4147 -21.355 -21.2379 -21.1029 -21.0989 -21.1601 -21.1018 -21.0491 -21.0237 -21.0062 -21.1223 -21.121 -21.1603 -21.2359 -21.2949 -21.0629 -21.0841 -21.1353 -21.105 -21.0112 -21.1031 -21.6595 -21.6781 -21.8413 -21.7494 -21.6208 -22.2392 -22.3072 -22.1448 -22.7072 -23.2169 -23.2914 -23.1407 -23.1569 -23.2278 -22.9712 -22.9615 -22.74 -23.2929 -22.7129 -22.3505 -23.0997 -23.2473 -22.6181 -23.4176 -23.3834 -23.8108 -22.437 -23.5001 -23.3453 -23.2611 -23.8331 -23.7118 -24.1044 -23.85 -24.0378 -24.1489 -23.7974 -24.1038 -24.5562 -24.67 -24.8075 -24.8301 -24.5472 -24.389 -24.1276 -24.4668 -29.8373 -24.9349 -29.9698 -28.2176 -25.4618 -25.2921 -23.891 -27.4567 -27.6833 -29.0249 -25.9084 -29.5403 -24.7727 -24.7421 -24.6228 -25.2756 -24.9249 -24.4991 -24.4127 -26.9393 -36.4506 -36.8662 -31.837 -31.8644 -29.6507 -30.24 -31.491 -31.8472 -31.1723 -34.747 -41.3789 -32.9475 -39.3111 -32.4671 -35.1535 -32.1099 -30.9418 -29.8525 -30.4767 -26.2225 -26.189 -25.2963 -26.6504 -26.1075 -26.7982 -25.9662 -26.161 -26.0798 -25.3107 -25.3501 -24.9149 -24.5079 -24.47 -23.8289 -24.1761 -23.7914 -22.9628 -23.2385 -22.8799 -23.5737 -23.0798 -23.8137 -23.3772 -23.5919 -23.9073 -23.0155 -23.8306 -23.626 -23.8656 -24.0239 -23.5276 -22.8695 -21.9234 -22.0618 -22.6247 -22.0739 -21.7812 -21.1232 -21.4696 -22.0718 -21.9879 -21.5718 -21.5877 -21.3373 -21.375 -21.2961 -21.1429 -21.0461 -20.9506 -20.8934 -20.4221 -20.6217 -20.6404 -20.5407 -20.7166 -20.7187 -20.5877 -20.3487 -20.7337 -20.7058 -20.3933 -20.2314 -20.4244 -20.3691 -20.542 -20.0632 -20.2741 -20.2733 -20.2154 -20.005 -20.1582 -20.0794 -20.1978 -20.1739 -20.198 -20.0793 -20.0954 -20.0021 -19.984 -20.0005 -19.9441 -19.9441 -19.9441 -19.9441 -19.9441 -19.9441 -19.9441 -19.9441 -19.9441 -19.9441 -19.9441 -19.9441 -19.9441 -19.9441 -19.9441 -19.9441 -19.9441 -19.9441 -19.9441 -19.9441 -19.9441 -19.9441 -19.9441 -19.9441 -19.9441 -19.9441 -19.9441 -19.9441 -19.9441 -19.9441 -19.9441 -19.9441 -19.9441 -19.9441 -19.9441 -19.9441 -19.9441 -19.9441 -19.9441 -19.9441 -19.9441 -19.9441 -19.9441 -19.9441 -19.9441 -19.9441 -19.9441 -19.9441 -19.9441 -19.9441 -19.9441 -19.9441 -19.9441 -19.9441 -19.9441 -19.9441 -19.9441 -19.9441 -19.9441 -19.9441 -19.9441 -19.9441 -19.9441 -19.9441 -19.9441 -19.9441 -19.9441 -19.9441 -19.9441 -19.9441 -19.9441 -19.9441 -19.9441 -19.9441
-27.8547 -27.4238 -27.8717 -27.6333 -27.112 -26.7245 -25.9493 -25.7879 -25.9471 -25.728 -25.4053 -25.3885 -25.3363 -26.1957 -26.4535 -26.079 -25.6857 -25.4223 -25.6681 -25.2614 -24.6875 -24.2717 -24.3536 -24.7041 -24.889 -24.4415 -24.2828 -24.2667 -24.3266 -24.283 -23.9662 -25.7653 -23.84 -24.5939 -24.7867 -27.2219 -26.444 -26.9813 -27.7397 -24.7746 -25.713 -24.9377 -23.3581 -24.9548 -25.3785 -25.8557 -26.3637 -25.8669 -26.6022 -24.1419 -23.5545 -23.7031 -25.1685 -25.8204 -25.0751 -25.9126 -25.4372 -25.9168 -25.3987 -26.1419 -27.6079 -27.4855 -25.9688 -25.2294 -23.8941 -23.6926 -23.4699 -22.4224 -22.0885 -21.7313 -21.8237 -21.5317 -21.3343 -21.2412 -21.2823 -21.2394 -21.1632 -21.2005 -21.162 -21.1967 -21.1471 -20.9841 -20.777 -20.8916 -20.8731 -20.8917 -20.97 -21.0439 -21.0633 -20.9474 -20.9116 -20.9477 -20.8349 -20.9337 -20.9506 -20.9198 -21.3652 -21.2059 -21.9583 -21.2902 -21.6956 -21.9982 -22.2774 -22.7954 -22.8748 -22.8667 -22.8059 -22.7383 -22.5657 -23.1565 -23.3533 -23.0753 -23.0453 -22.4573 -22.9592 -22.6708 -22.5458 -23.1329 -23.0235 -23.3166 -23.4274 -23.6123 -22.9698 -22.6467 -23.1016 -23.1339 -22.5371 -23.1063 -23.2808 -23.0087 -23.6054 -23.468 -23.9214 -24.0639 -23.9487 -23.9056 -24.0935 -24.3776 -25.9584 -24.4871 -23.9199 -24.1781 -28.4707 -27.1884 -28.9687 -24.7605 -23.3917 -23.5701 -25.7458 -28.0914 -28.7907 -25.2383 -31.4149 -25.4887 -25.1869 -25.1332 -26.2237 -25.2521 -24.2908 -24.1391 -23.9615 -24.9977 -29.2032 -30.8272 -32.0423 -29.6418 -34.173 -34.6517 -35.6481 -36.9664 -35.9009 -31.5656 -37.9302 -38.5725 -35.3955 -31.2574 -33.7785 -31.2305 -28.2826 -29.3642 -29.0441 -25.7587 -25.5201 -24.4834 -25.6817 -25.194 -25.5185 -25.4001 -24.9855 -25.1668 -25.2533 -24.6106 -24.5106 -24.1772 -23.6956 -23.7926 -23.491 -22.8398 -23.6848 -23.6153 -22.5896 -22.2976 -23.5924 -23.7763 -22.9695 -22.925 -23.4072 -22.7763 -22.9104 -23.1488 -23.6952 -22.8675 -23.2051 -22.5715 -22.288 -21.7995 -21.5339 -21.8657 -21.4257 -21.6171 -21.2319 -21.6124 -21.5377 -21.2253 -21.2022 -21.0271 -21.1252 -21.0292 -20.8348 -20.9096 -20.759 -20.6032 -20.1828 -20.3706 -20.4495 -20.4079 -20.3521 -20.3903 -20.3433 -20.5818 -20.4176 -20.2796 -20.1768 -20.0064 -20.1366 -20.3151 -20.3144 -20.2758 -19.9089 -20.0441 -20.1035 -19.9474 -19.9869 -20.0067 -20.0393 -19.9651 -20.0057 -19.9069 -19.8905 -19.8681 -19.8313 -19.8297 -19.8297 -19.8297 -19.8297 -19.8297 -19.8297 -19.8297 -19.8297 -19.8297 -19.8297 -19.8297 -19.8297 -19.8297 -19.8297 -19.8297 -19.8297 -19.8297 -19.8297 -19.8297 -19.8297 -19.8297 -19.8297 -19.8297 -19.8297 -19.8297 -19.8297 -19.8297 -19.8297 -19.8297 -19.8297 -19.8297 -19.8297 -19.8297 -19.8297 -19.8297 -19.8297 -19.8297 -19.8297 -19.8297 -19.8297 -19.8297 -19.8297 -19.8297 -19.8297 -19.8297 -19.8297 -19.8297 -19.8297 -19.8297 -19.8297 -19.8297 -19.8297 -19.8297 -19.8297 -19.8297 -19.8297 -19.8297 -19.8297 -19.8297 -19.8297 -19.8297 -19.8297 -19.8297 -19.8297 -19.8297 -19.8297 -19.8297 -19.8297 -19.8297 -19.8297 -19.8297 -19.8297 -19.8297 -19.8297 -19.8297
-26.8121 -27.4547 -27.3316 -27.5587 -26.8101 -26.385 -26.571 -25.6801 -25.8559 -25.653 -25.3642 -25.3432 -24.9635 -25.8821 -26.4615 -26.1703 -26.0683 -26.2895 -24.4813 -24.3497 -24.1466 -24.2729 -24.061 -24.0146 -23.9987 -24.2936 -23.8352 -24.2146 -24.0417 -25.1478 -24.5004 -25.9305 -26.0931 -23.8136 -23.5692 -24.1014 -25.6526 -23.7208 -23.7463 -24.685 -25.4855 -27.1945 -27.4589 -25.2733 -30.2153 -31.983 -27.6689 -26.7028 -25.2723 -25.5377 -25.9314 -28.6456 -28.0394 -25.6014 -26.7905 -26.2635 -24.2868 -24.4949 -26.492 -25.3826 -24.6548 -24.0232 -23.5754 -23.7453 -23.0162 -22.8766 -22.3737 -23.1177 -22.7136 -21.8492 -21.3924 -21.2672 -21.0924 -21.1329 -21.0951 -21.055 -21.0341 -20.9951 -21.0918 -20.937 -20.92 -20.7823 -20.7257 -20.7651 -20.7264 -20.7459 -20.7642 -20.8235 -20.9549 -21.5725 -20.7644 -20.9224 -20.9351 -20.8025 -20.7843 -20.7654 -21.242 -20.9793 -20.9939 -21.5416 -21.6816 -21.9532 -22.1016 -22.5512 -23.1814 -22.3515 -22.439 -21.8685 -23.0844 -22.014 -22.4839 -22.9179 -23.1771 -22.5913 -22.8496 -22.5995 -22.8988 -22.9305 -23.0376 -23.0439 -22.8747 -23.5157 -23.6821 -22.6562 -22.4217 -22.6118 -22.6962 -22.9407 -22.9869 -22.9816 -23.2173 -23.2375 -22.9692 -23.1701 -23.5172 -23.3362 -23.751 -24.1931 -23.5355 -25.1038 -26.3878 -24.331 -23.8162 -27.2478 -25.0173 -25.0797 -23.5123 -26.2556 -28.0412 -28.4156 -29.2239 -25.0888 -32.3423 -25.284 -24.8581 -25.7285 -25.8959 -26.6394 -24.0153 -23.7656 -24.052 -25.8233 -29.7314 -28.1619 -27.849 -32.2634 -33.397 -32.4812 -35.2353 -34.1532 -36.347 -36.0362 -34.1747 -29.7535 -29.2557 -30.8361 -32.1513 -29.0637 -26.7829 -26.3444 -25.3856 -24.7994 -24.5955 -24.73 -24.5607 -24.7292 -24.6289 -25.1359 -24.5908 -25.1138 -24.5353 -24.7252 -23.8061 -23.695 -23.715 -22.7736 -23.2978 -22.6746 -23.2166 -22.8826 -22.2038 -22.8567 -22.6389 -22.7734 -22.7565 -22.5893 -22.3059 -22.7069 -22.4606 -23.0489 -23.3602 -23.1888 -23.0458 -22.7251 -22.7748 -22.4346 -21.6398 -20.6777 -21.0753 -20.3424 -20.5516 -20.9769 -21.0154 -20.9223 -20.9016 -20.8256 -20.7488 -20.7873 -20.593 -20.6263 -20.5346 -20.5079 -20.4195 -20.0228 -20.1481 -20.1887 -20.2064 -20.0704 -20.2248 -20.2234 -20.089 -20.0862 -19.8746 -19.8578 -19.8965 -20.1099 -20.2047 -20.0292 -19.8611 -19.7025 -19.9357 -19.7856 -19.8379 -19.8182 -19.7993 -19.7028 -19.7028 -19.7028 -19.78 -19.7028 -19.7028 -19.7028 -19.7028 -19.7028 -19.7028 -19.7028 -19.7028 -19.7028 -19.7028 -19.7028 -19.7028 -19.7028 -19.7028 -19.7028 -19.7028 -19.7028 -19.7028 -19.7028 -19.7028 -19.7028 -19.7028 -19.7028 -19.7028 -19.7028 -19.7028 -19.7028 -19.7028 -19.7028 -19.7028 -19.7028 -19.7028 -19.7028 -19.7028 -19.7028 -19.7028 -19.7028 -19.7028 -19.7028 -19.7028 -19.7028 -19.7028 -19.7028 -19.7028 -19.7028 -19.7028 -19.7028 -19.7028 -19.7028 -19.7028 -19.7028 -19.7028 -19.7028 -19.7028 -19.7028 -19.7028 -19.7028 -19.7028 -19.7028 -19.7028 -19.7028 -19.7028 -19.7028 -19.7028 -19.7028 -19.7028 -19.7028 -19.7028 -19.7028 -19.7028 -19.7028 -19.7028 -19.7028 -19.7028 -19.7028 -19.7028 -19.7028
-26.1739 -26.6611 -27.1593 -27.2171 -26.9779 -26.2587 -26.7191 -25.9141 -26.0122 -25.6321 -25.6041 -25.0949 -25.0911 -25.5394 -26.2875 -26.8277 -26.678 -26.6014 -24.568 -23.8481 -23.8797 -23.582 -24.2732 -23.3589 -23.4524 -23.8612 -23.7507 -24.6078 -24.7716 -25.0709 -23.8411 -26.3114 -25.2716 -24.9101 -23.2081 -23.6171 -23.2873 -23.7905 -25.4687 -30.0983 -28.1687 -24.9225 -25.2643 -26.5127 -26.5074 -25.9395 -29.0345 -26.5766 -25.9306 -28.9241 -26.8845 -29.2103 -24.5928 -24.3934 -23.6211 -23.3852 -23.2071 -23.2002 -23.2085 -23.7267 -24.9466 -24.3444 -23.7742 -22.8832 -22.459 -22.7644 -22.3009 -22.2797 -21.901 -21.6991 -21.6618 -21.0424 -21.0024 -20.9449 -20.885 -20.8668 -20.8435 -20.8072 -20.8442 -20.8466 -20.771 -20.8062 -20.6747 -20.6534 -20.633 -20.6732 -20.614 -20.6731 -20.8271 -20.9194 -21.143 -20.6391 -20.7748 -20.6503 -20.6148 -20.8655 -21.2699 -21.0388 -21.0951 -21.1125 -21.5006 -22.2853 -22.3496 -22.3153 -21.7385 -22.0726 -21.6946 -22.2315 -22.3434 -22.3163 -22.4344 -22.393 -23.0392 -23.1302 -21.9122 -22.5096 -21.9539 -22.1488 -22.522 -22.9668 -22.4785 -22.9279 -24.3015 -23.8589 -24.0095 -23.1319 -22.5651 -23.6856 -23.6403 -23.5392 -23.3628 -23.1985 -23.0067 -23.1258 -22.8901 -22.9942 -23.0828 -23.18 -23.0564 -23.8035 -23.0832 -26.3069 -24.3319 -24.4042 -23.0991 -23.3332 -24.6309 -27.7247 -27.897 -29.1142 -27.1361 -30.3507 -29.3563 -29.949 -24.7014 -26.4917 -24.9501 -26.6052 -24.0154 -23.8545 -23.924 -23.913 -27.0696 -27.8422 -29.0833 -29.1119 -30.4912 -34.2172 -32.5367 -34.2535 -30.355 -30.0702 -29.2254 -33.0906 -27.6771 -27.7296 -27.9824 -28.1664 -24.6333 -24.4143 -24.7276 -24.9228 -24.3037 -24.1034 -24.0242 -24.3029 -24.1907 -24.5727 -24.4274 -24.752 -23.7977 -24.2062 -24.3971 -23.7976 -23.2808 -22.9366 -23.2133 -22.5756 -22.0934 -22.4524 -22.406 -22.034 -22.1573 -22.619 -23.1373 -22.375 -22.1276 -22.3456 -22.6702 -23.3109 -22.7693 -22.9951 -22.026 -21.794 -21.9283 -21.7243 -21.3519 -20.8808 -20.9737 -20.4718 -20.1328 -20.5415 -20.6758 -20.6922 -20.5996 -20.6174 -20.5979 -20.5575 -20.4226 -20.3657 -20.4581 -20.3496 -20.3082 -20.3881 -20.3211 -19.919 -19.9398 -19.9622 -20.0146 -20.1096 -20.0001 -19.9978 -19.9205 -19.7281 -19.7274 -19.7239 -19.806 -19.8822 -19.9629 -19.6689 -19.7268 -19.6689 -19.5917 -19.5917 -19.5917 -19.5917 -19.5917 -19.5917 -19.5917 -19.5917 -19.5917 -19.5917 -19.5917 -19.5917 -19.5917 -19.5917 -19.5917 -19.5917 -19.5917 -19.5917 -19.5917 -19.5917 -19.5917 -19.5917 -19.5917 -19.5917 -19.5917 -19.5917 -19.5917 -19.5917 -19.5917 -19.5917 -19.5917 -19.5917 -19.5917 -19.5917 -19.5917 -19.5917 -19.5917 -19.5917 -19.5917 -19.5917 -19.5917 -19.5917 -19.5917 -19.5917 -19.5917 -19.5917 -19.5917 -19.5917 -19.5917 -19.5917 -19.5917 -19.5917 -19.5917 -19.5917 -19.5917 -19.5917 -19.5917 -19.5917 -19.5917 -19.5917 -19.5917 -19.5917 -19.5917 -19.5917 -19.5917 -19.5917 -19.5917 -19.5917 -19.5917 -19.5917 -19.5917 -19.5917 -19.5917 -19.5917 -19.5917 -19.5917 -19.5917 -19.5917 -19.5917 -19.5917 -19.5917 -19.5917 -19.5917 -19.5917
-26.1267 -25.9159 -26.7574 -26.7697 -25.9558 -26.6271 -25.682 -25.4951 -25.0438 -25.163 -25.073 -24.5303 -24.5151 -25.177 -25.603 -26.5151 -26.4375 -26.1835 -26.128 -24.2661 -23.4769 -23.2082 -23.8705 -23.0632 -23.3268 -23.4042 -24.604 -24.9225 -23.9051 -24.2088 -25.8928 -26.1882 -25.17 -24.8062 -25.3653 -27.5086 -28.8154 -26.8313 -28.3513 -26.4932 -26.0228 -26.3856 -27.5681 -27.5959 -26.623 -24.9774 -25.789 -25.8551 -25.4126 -24.8243 -25.6259 -25.3125 -24.8801 -24.609 -23.6608 -23.613 -23.5466 -23.9147 -24.8357 -23.3778 -23.8688 -24.2798 -23.9645 -24.1766 -22.2824 -21.6845 -21.601 -21.7309 -21.6277 -21.9016 -21.2271 -20.9537 -20.7952 -20.8337 -20.8519 -20.7768 -20.679 -20.6426 -20.6982 -20.7197 -20.6793 -20.6791 -20.5655 -20.5448 -20.4677 -20.4854 -20.5247 -20.602 -20.6026 -20.6612 -21.2186 -20.4037 -20.5255 -20.487 -20.5056 -20.615 -21.3459 -21.3634 -21.4112 -21.2133 -21.6608 -22.0121 -21.8938 -21.2654 -21.1671 -21.3193 -21.6593 -21.7789 -22.1549 -21.5891 -21.7873 -22.263 -22.7558 -22.1973 -21.6938 -22.1902 -21.6504 -21.6962 -22.3243 -22.9842 -23.3631 -22.9431 -23.1768 -23.6382 -24.3089 -24.425 -23.1212 -22.9021 -23.1888 -23.4057 -23.4879 -23.7349 -23.9403 -23.6743 -22.8061 -22.8739 -22.7991 -23.0558 -22.8804 -22.7798 -22.9409 -23.171 -23.5571 -25.9224 -23.1829 -25.0203 -26.908 -26.9681 -27.3383 -27.0475 -25.7235 -29.0689 -29.0836 -24.0648 -23.4193 -25.4197 -25.5849 -24.4458 -23.3592 -23.3783 -23.3593 -24.1847 -25.5879 -26.8297 -28.7897 -34.2517 -31.3871 -29.6411 -29.6728 -27.7169 -27.5469 -27.6575 -28.5198 -27.6791 -27.6476 -27.923 -28.1835 -26.1204 -25.0178 -24.5179 -23.8738 -24.7224 -23.9342 -23.8735 -23.8932 -24.1739 -24.256 -24.03 -24.3214 -23.7365 -23.932 -23.5523 -23.5757 -23.5299 -23.2028 -22.8231 -22.7196 -22.0323 -22.4795 -21.8156 -21.9192 -22.5594 -22.3876 -22.6902 -22.8805 -22.4267 -22.2578 -21.5207 -21.8702 -22.5554 -22.6617 -21.8215 -22.0089 -21.4091 -21.9955 -21.435 -21.8111 -21.0027 -21.4545 -20.5823 -19.9678 -20.1785 -20.1812 -20.5062 -20.3525 -20.1985 -20.2345 -20.2944 -20.2572 -20.2184 -20.0648 -20.0426 -20.2394 -20.2357 -20.1417 -20.0744 -19.9844 -19.8101 -19.793 -19.9471 -19.8513 -19.7746 -19.7514 -19.5787 -19.6719 -19.6169 -19.6735 -19.7898 -19.7524 -19.4822 -19.4822 -19.4822 -19.4822 -19.4822 -19.4822 -19.4822 -19.4822 -19.4822 -19.4822 -19.4822 -19.4822 -19.4822 -19.4822 -19.4822 -19.4822 -19.4822 -19.4822 -19.4822 -19.4822 -19.4822 -19.4822 -19.4822 -19.4822 -19.4822 -19.4822 -19.4822 -19.4822 -19.4822 -19.4822 -19.4822 -19.4822 -19.4822 -19.4822 -19.4822 -19.4822 -19.4822 -19.4822 -19.4822 -19.4822 -19.4822 -19.4822 -19.4822 -19.4822 -19.4822 -19.4822 -19.4822 -19.4822 -19.4822 -19.4822 -19.4822 -19.4822 -19.4822 -19.4822 -19.4822 -19.4822 -19.4822 -19.4822 -19.4822 -19.4822 -19.4822 -19.4822 -19.4822 -19.4822 -19.4822 -19.4822 -19.4822 -19.4822 -19.4822 -19.4822 -19.4822 -19.4822 -19.4822 -19.4822 -19.4822 -19.4822 -19.4822 -19.4822 -19.4822 -19.4822 -19.4822 -19.4822 -19.4822 -19.4822 -19.4822 -19.4822 -19.4822
-25.5104 -26.3192 -25.7368 -25.8108 -25.62 -25.9994 -25.1551 -25.1688 -25.3612 -26.0155 -26.9658 -26.0777 -24.1426 -25.0047 -25.9391 -25.8688 -25.9322 -25.9828 -25.413 -24.9306 -24.0806 -23.1756 -23.6367 -22.9921 -23.2153 -23.4148 -23.8713 -24.6068 -24.8316 -23.6954 -24.3913 -22.7201 -24.5756 -25.5013 -24.0999 -23.9002 -24.3169 -26.3951 -25.5692 -26.6819 -27.3072 -28.1962 -23.7657 -24.3289 -24.7711 -24.7816 -26.034 -27.9626 -27.1825 -27.8798 -26.814 -26.5694 -25.6226 -23.8738 -25.3704 -25.4943 -24.0153 -24.1014 -22.9321 -22.4369 -22.0731 -22.3956 -21.9253 -22.6167 -22.809 -21.7876 -21.1246 -21.5336 -21.4649 -21.122 -21.4233 -21.1477 -21.0568 -20.7508 -20.673 -20.6174 -20.519 -20.5189 -20.5779 -20.5975 -20.558 -20.4799 -20.5182 -20.384 -20.4412 -20.3457 -20.4016 -20.3887 -20.307 -20.3442 -20.3639 -20.3678 -20.3452 -20.3067 -20.3077 -20.3269 -21.0511 -21.3359 -21.1593 -21.4089 -21.4186 -20.9808 -21.099 -21.3987 -21.8959 -22.1042 -21.77 -21.1609 -21.3094 -21.3254 -21.957 -22.1739 -21.5711 -21.568 -21.3994 -21.3719 -21.5409 -21.3434 -21.8504 -22.5331 -22.4106 -23.2964 -23.5628 -23.688 -23.3481 -23.4132 -23.9451 -23.6398 -23.0469 -23.1769 -23.1588 -23.1296 -23.0451 -23.1104 -23.1897 -23.4989 -23.1389 -22.9385 -26.2594 -26.0295 -23.1251 -23.2981 -23.5371 -22.9383 -24.6186 -25.6379 -26.4163 -26.6767 -26.718 -25.0216 -28.5533 -28.047 -24.0089 -23.6774 -25.8646 -25.4305 -23.3042 -25.5728 -23.3628 -24.3359 -23.4926 -23.6154 -26.2326 -26.6217 -28.1071 -27.7263 -30.0241 -27.8601 -27.7628 -27.4534 -26.3191 -26.6788 -27.2373 -27.3737 -26.7577 -26.9152 -24.2221 -23.9508 -24.3283 -24.0119 -24.0682 -24.0149 -23.6438 -23.3412 -23.6328 -23.5599 -23.8182 -23.8269 -24.01 -23.6429 -23.1838 -22.9799 -22.665 -23.4348 -22.9675 -23.2812 -22.9897 -22.1331 -22.3354 -21.4115 -21.8961 -21.4477 -22.115 -21.8979 -22.4123 -22.1173 -21.3575 -20.8053 -22.2743 -21.9097 -21.9606 -21.9645 -21.3273 -21.6854 -21.1779 -21.9266 -21.1608 -21.4047 -20.6353 -20.423 -19.8841 -19.805 -20.1536 -20.134 -20.1016 -20.0201 -20.1711 -20.2127 -20.0368 -20.0595 -19.9454 -19.9524 -19.9782 -19.9849 -19.8202 -19.9943 -19.9856 -19.6703 -19.4974 -19.5349 -19.5584 -19.5382 -19.5581 -19.5791 -19.4791 -19.572 -19.6676 -19.3609 -19.3609 -19.3609 -19.3609 -19.3609 -19.3609 -19.3609 -19.3609 -19.3609 -19.3609 -19.3609 -19.3609 -19.3609 -19.3609 -19.3609 -19.3609 -19.3609 -19.3609 -19.3609 -19.3609 -19.3609 -19.3609 -19.3609 -19.3609 -19.3609 -19.3609 -19.3609 -19.3609 -19.3609 -19.3609 -19.3609 -19.3609 -19.3609 -19.3609 -19.3609 -19.3609 -19.3609 -19.3609 -19.3609 -19.3609 -19.3609 -19.3609 -19.3609 -19.3609 -19.3609 -19.3609 -19.3609 -19.3609 -19.3609 -19.3609 -19.3609 -19.3609 -19.3609 -19.3609 -19.3609 -19.3609 -19.3609 -19.3609 -19.3609 -19.3609 -19.3609 -19.3609 -19.3609 -19.3609 -19.3609 -19.3609 -19.3609 -19.3609 -19.3609 -19.3609 -19.3609 -19.3609 -19.3609 -19.3609 -19.3609 -19.3609 -19.3609 -19.3609 -19.3609 -19.3609 -19.3609 -19.3609 -19.3609 -19.3609 -19.3609 -19.3609 -19.3609 -19.3609 -19.3609
-25.303 -25.6803 -25.3096 -25.6369 -24.9729 -25.3059 -25.4445 -25.344 -25.1097 -25.1243 -26.1465 -26.1337 -26.472 -23.989 -25.0947 -25.8933 -25.0965 -25.0297 -24.8864 -24.484 -23.5773 -23.1395 -22.7722 -23.0943 -22.7223 -22.8649 -23.4656 -23.4681 -24.3163 -23.4229 -24.7458 -24.7835 -22.5086 -24.6158 -24.9441 -24.0939 -25.2071 -24.3999 -24.1876 -23.8401 -24.7018 -23.8447 -24.2634 -24.5152 -24.8449 -25.6025 -25.5996 -25.0073 -26.4885 -29.3286 -27.0997 -25.8357 -25.2994 -25.8941 -24.5593 -24.6049 -24.1574 -23.3553 -22.9651 -24.5974 -23.6337 -23.149 -22.934 -22.0195 -21.5552 -21.0477 -20.802 -21.2935 -21.1144 -21.056 -21.0955 -21.0644 -21.0931 -20.5264 -20.5285 -20.5096 -20.3941 -20.4507 -20.4125 -20.3734 -20.3932 -20.3929 -20.3555 -20.2975 -20.3357 -20.1836 -20.1047 -20.1431 -20.2394 -20.2423 -20.1385 -20.2004 -20.2382 -20.2211 -20.1797 -20.1798 -20.2204 -20.8543 -21.1885 -20.5696 -21.01 -21.4067 -21.5402 -21.5088 -22.24 -22.3936 -21.6087 -21.8826 -21.1807 -21.3522 -21.738 -22.0313 -21.0735 -21.1079 -21.5997 -21.5216 -21.0322 -21.2566 -22.1465 -21.9997 -22.876 -23.4873 -23.0748 -24.1032 -24.3122 -25.1725 -24.8264 -25.0042 -24.57 -23.8612 -24.7894 -23.437 -23.892 -22.7486 -22.7863 -23.3091 -24.7325 -24.9985 -24.1454 -24.3944 -25.1631 -25.5233 -22.746 -23.8989 -25.5867 -25.7747 -25.8492 -26.4438 -23.7556 -27.4341 -26.6304 -23.7272 -25.289 -23.4401 -25.2214 -23.3891 -23.3852 -23.2487 -24.282 -24.7905 -23.9667 -24.1975 -25.5586 -27.8319 -26.9057 -26.665 -27.0092 -27.0859 -27.0519 -26.0986 -26.1304 -26.4933 -26.1947 -26.1359 -25.9518 -24.3687 -24.6193 -23.9494 -23.3317 -23.7038 -24.1472 -24.3051 -23.8061 -23.346 -23.2253 -23.4313 -23.7695 -23.1317 -23.239 -23.4874 -22.9956 -22.4199 -22.34 -22.927 -22.6533 -22.5331 -22.4427 -22.1491 -21.7053 -21.569 -21.6728 -21.0653 -21.9942 -21.6945 -21.8492 -21.6695 -21.8913 -20.8951 -20.7918 -21.1046 -21.2068 -21.5999 -21.3201 -20.8603 -20.491 -21.2454 -20.6314 -20.3912 -20.3345 -20.0837 -20.2801 -19.6998 -19.6972 -19.8026 -19.8349 -19.854 -19.8931 -19.8345 -19.854 -19.9638 -19.8334 -19.8522 -19.8338 -19.6784 -19.7721 -19.7249 -19.6412 -19.7006 -19.5473 -19.3695 -19.2915 -19.4886 -19.2949 -19.4316 -19.3088 -19.5055 -19.2547 -19.2547 -19.2547 -19.2547 -19.2547 -19.2547 -19.2547 -19.2547 -19.2547 -19.2547 -19.2547 -19.2547 -19.2547 -19.2547 -19.2547 -19.2547 -19.2547 -19.2547 -19.2547 -19.2547 -19.2547 -19.2547 -19.2547 -19.2547 -19.2547 -19.2547 -19.2547 -19.2547 -19.2547 -19.2547 -19.2547 -19.2547 -19.2547 -19.2547 -19.2547 -19.2547 -19.2547 -19.2547 -19.2547 -19.2547 -19.2547 -19.2547 -19.2547 -19.2547 -19.2547 -19.2547 -19.2547 -19.2547 -19.2547 -19.2547 -19.2547 -19.2547 -19.2547 -19.2547 -19.2547 -19.2547 -19.2547 -19.2547 -19.2547 -19.2547 -19.2547 -19.2547 -19.2547 -19.2547 -19.2547 -19.2547 -19.2547 -19.2547 -19.2547 -19.2547 -19.2547 -19.2547 -19.2547 -19.2547 -19.2547 -19.2547 -19.2547 -19.2547 -19.2547 -19.2547 -19.2547 -19.2547 -19.2547 -19.2547 -19.2547 -19.2547 -19.2547 -19.2547 -19.2547 -19.2547
-24.86 -25.1443 -25.0738 -24.952 -24.5252 -24.7136 -24.968 -25.3396 -25.1661 -24.6194 -24.1689 -24.183 -24.1996 -23.7947 -23.948 -24.9356 -24.2729 -24.2004 -23.9051 -23.6523 -23.7086 -23.3545 -22.8418 -22.6479 -22.746 -22.9502 -22.5037 -22.7383 -22.6612 -22.2476 -22.8445 -22.4049 -22.9604 -24.5067 -22.978 -23.4443 -24.4392 -24.6789 -23.6033 -23.7238 -24.9835 -24.3758 -24.305 -26.09 -25.9204 -25.3098 -24.8108 -23.8483 -23.588 -24.4747 -24.5695 -23.5957 -24.0608 -23.7014 -23.9057 -23.0195 -22.2868 -22.5318 -22.202 -22.2874 -22.2906 -22.2388 -21.6133 -20.6898 -22.0219 -21.2442 -20.5976 -20.8308 -20.6578 -20.7022 -20.9579 -20.9623 -20.8879 -20.6152 -20.3665 -20.3485 -20.2523 -20.2455 -20.3021 -20.2713 -20.2503 -20.2905 -20.2321 -20.1727 -20.1943 -20.0455 -19.9994 -20.0566 -20.1325 -20.1737 -20.0951 -20.0944 -20.1135 -20.0963 -20.1346 -20.0384 -20.0751 -20.2046 -20.6689 -21.1619 -21.2765 -22.0153 -21.7208 -21.4009 -21.448 -21.5912 -21.7188 -21.8761 -21.3849 -21.5661 -22.1002 -21.9168 -21.2968 -20.8702 -21.3254 -21.5312 -21.2278 -21.2586 -21.7618 -21.9364 -22.4526 -22.5642 -23.6919 -23.9024 -23.7926 -24.2098 -24.3552 -24.5998 -24.3846 -23.8654 -23.7839 -23.8094 -24.3283 -25.0681 -25.3906 -24.178 -25.0262 -25.2048 -24.9936 -24.9977 -25.2974 -22.7256 -24.8726 -24.7145 -25.0699 -25.3841 -25.6643 -23.5691 -26.801 -25.5524 -23.333 -23.3222 -23.8927 -25.3945 -23.4671 -22.8585 -22.9875 -24.1298 -24.4349 -24.568 -24.3065 -25.7059 -28.3406 -25.7402 -26.0083 -25.0528 -25.6967 -25.6162 -25.9508 -27.3194 -26.2827 -25.5582 -26.3923 -24.5824 -24.4839 -24.0444 -23.8011 -23.4988 -23.3592 -23.6565 -23.8684 -24.3578 -23.9119 -23.2266 -22.6532 -22.7842 -22.9692 -23.2346 -22.6355 -23.0346 -22.7964 -23.0598 -22.0195 -22.3798 -22.5512 -21.9721 -22.2606 -22.062 -22.2779 -21.9503 -21.4482 -21.1814 -21.7576 -21.3081 -21.9198 -22.6159 -22.457 -21.6223 -21.1807 -21.2979 -20.9085 -20.9113 -20.9031 -20.9569 -20.9935 -20.4654 -20.4062 -20.3677 -20.1734 -19.998 -20.0401 -19.6641 -19.4461 -19.5965 -19.651 -19.7462 -19.7455 -19.5562 -19.5479 -19.5901 -19.8038 -19.7285 -19.7144 -19.5896 -19.595 -19.4042 -19.4 -19.499 -19.4049 -19.3971 -19.3663 -19.3077 -19.1708 -19.3239 -19.4054 -19.1501 -19.1501 -19.1501 -19.1501 -19.1501 -19.1501 -19.1501 -19.1501 -19.1501 -19.1501 -19.1501 -19.1501 -19.1501 -19.1501 -19.1501 -19.1501 -19.1501 -19.1501 -19.1501 -19.1501 -19.1501 -19.1501 -19.1501 -19.1501 -19.1501 -19.1501 -19.1501 -19.1501 -19.1501 -19.1501 -19.1501 -19.1501 -19.1501 -19.1501 -19.1501 -19.1501 -19.1501 -19.1501 -19.1501 -19.1501 -19.1501 -19.1501 -19.1501 -19.1501 -19.1501 -19.1501 -19.1501 -19.1501 -19.1501 -19.1501 -19.1501 -19.1501 -19.1501 -19.1501 -19.1501 -19.1501 -19.1501 -19.1501 -19.1501 -19.1501 -19.1501 -19.1501 -19.1501 -19.1501 -19.1501 -19.1501 -19.1501 -19.1501 -19.1501 -19.1501 -19.1501 -19.1501 -19.1501 -19.1501 -19.1501 -19.1501 -19.1501 -19.1501 -19.1501 -19.1501 -19.1501 -19.1501 -19.1501 -19.1501 -19.1501 -19.1501 -19.1501 -19.1501 -19.1501 -19.1501 -19.1501
-24.8474 -24.4196 -24.721 -24.5212 -24.461 -24.108 -24.3693 -24.6585 -24.5974 -24.3617 -24.4977 -24.492 -24.0969 -23.8192 -23.3817 -23.3964 -23.0502 -22.9935 -23.1099 -23.5986 -22.9535 -23.4099 -22.771 -22.5073 -22.0443 -22.3739 -22.6394 -21.8332 -22.46 -22.4344 -22.1013 -22.4902 -22.2034 -22.4565 -23.2051 -22.7763 -22.0339 -23.0532 -23.7126 -24.1451 -24.2526 -23.7595 -23.7487 -25.1089 -24.3784 -23.4164 -23.2177 -22.6658 -23.586 -22.8987 -23.9925 -23.2343 -23.6149 -22.5246 -23.5619 -22.0622 -21.6591 -22.2556 -22.6604 -22.5462 -22.0333 -21.3962 -20.4435 -21.041 -21.4928 -22.0616 -20.8106 -20.4428 -20.5395 -20.3761 -20.9234 -20.8111 -20.8722 -20.4646 -20.2704 -20.2305 -20.1724 -20.1151 -20.1923 -20.21 -20.1344 -20.1547 -20.155 -20.1327 -20.0363 -19.9269 -19.9022 -20.0771 -20.1185 -19.9849 -19.961 -19.9988 -19.9613 -19.9426 -19.9609 -19.9235 -19.9406 -20.8859 -20.4495 -20.6924 -21.3465 -20.9218 -20.6419 -21.2767 -21.8131 -21.2674 -21.4375 -21.5348 -21.7603 -21.4677 -21.3774 -20.8788 -21.0253 -20.8384 -21.0356 -21.0045 -21.0965 -21.041 -21.1995 -21.6676 -22.621 -22.867 -23.2994 -23.0579 -23.7049 -23.7398 -24.2772 -23.9205 -23.8462 -23.483 -23.8512 -23.5321 -23.7902 -24.311 -24.4542 -24.2303 -23.6815 -24.3428 -24.4075 -23.9292 -23.2876 -24.5838 -24.4189 -24.8106 -25.251 -25.3863 -23.696 -25.2674 -24.0895 -22.7904 -22.2609 -22.3631 -22.5108 -22.659 -22.5921 -22.8774 -23.4333 -22.9616 -23.0912 -23.8768 -23.5276 -25.2784 -25.415 -24.9241 -25.2296 -25.6028 -26.0188 -25.7843 -26.2926 -25.7857 -25.3429 -26.3556 -25.218 -24.6311 -24.4773 -23.7007 -24.0968 -23.8654 -23.4731 -23.7522 -23.5458 -23.3385 -23.17 -22.9025 -22.3025 -22.3797 -22.1152 -22.5389 -22.2074 -22.7257 -22.1851 -22.8095 -22.6233 -22.0686 -21.7761 -22.1456 -21.5615 -21.8712 -21.6604 -22.1023 -22.0279 -21.6947 -21.387 -20.8661 -20.9537 -21.2889 -21.9413 -21.1052 -20.6022 -20.9215 -19.9257 -20.2309 -20.7687 -20.6587 -20.6678 -20.1162 -20.1555 -20.0959 -20.0192 -19.9227 -19.8633 -19.7932 -19.5307 -19.2631 -19.4202 -19.5917 -19.6133 -19.6369 -19.3029 -19.6109 -19.5932 -19.6572 -19.6344 -19.4059 -19.3618 -19.2832 -19.3048 -19.3812 -19.4592 -19.4006 -19.342 -19.2293 -19.037 -19.2472 -19.0343 -19.0343 -19.0343 -19.0343 -19.0343 -19.0343 -19.0343 -19.0343 -19.0343 -19.0343 -19.0343 -19.0343 -19.0343 -19.0343 -19.0343 -19.0343 -19.0343 -19.0343 -19.0343 -19.0343 -19.0343 -19.0343 -19.0343 -19.0343 -19.0343 -19.0343 -19.0343 -19.0343 -19.0343 -19.0343 -19.0343 -19.0343 -19.0343 -19.0343 -19.0343 -19.0343 -19.0343 -19.0343 -19.0343 -19.0343 -19.0343 -19.0343 -19.0343 -19.0343 -19.0343 -19.0343 -19.0343 -19.0343 -19.0343 -19.0343 -19.0343 -19.0343 -19.0343 -19.0343 -19.0343 -19.0343 -19.0343 -19.0343 -19.0343 -19.0343 -19.0343 -19.0343 -19.0343 -19.0343 -19.0343 -19.0343 -19.0343 -19.0343 -19.0343 -19.0343 -19.0343 -19.0343 -19.0343 -19.0343 -19.0343 -19.0343 -19.0343 -19.0343 -19.0343 -19.0343 -19.0343 -19.0343 -19.0343 -19.0343 -19.0343 -19.0343 -19.0343 -19.0343 -19.0343 -19.0343 -19.0343 -19.0343
-24.1783 -24.7182 -24.3812 -24.4445 -24.1083 -24.2424 -24.1087 -24.1488 -25.0216 -24.2556 -24.1582 -24.1239 -23.9768 -23.8765 -24.3853 -24.3589 -24.0085 -23.7042 -23.0842 -22.9878 -23.2022 -22.7166 -23.14 -23.0779 -22.6926 -22.1818 -21.9096 -22.207 -22.2309 -22.3876 -22.5802 -21.9472 -21.5069 -21.9513 -22.3176 -22.3442 -22.044 -22.3027 -22.5274 -22.1041 -22.7509 -22.9832 -23.4335 -23.2314 -22.6668 -21.9829 -22.9555 -22.1515 -22.7979 -22.1529 -22.4111 -22.3655 -22.0067 -22.1641 -22.65 -22.5618 -21.3684 -21.8088 -21.4188 -21.0978 -21.1268 -20.2209 -20.1997 -20.5762 -21.6838 -21.4629 -21.1703 -20.6876 -20.1882 -20.1852 -20.4987 -20.3626 -20.7102 -20.6571 -20.1881 -20.1092 -20.0341 -20.0153 -20.0164 -19.9768 -19.9591 -20.0124 -20.0554 -20.0144 -19.935 -19.8823 -19.8068 -19.8189 -19.8057 -19.7647 -19.8391 -19.8589 -19.8587 -19.8421 -19.8168 -19.8211 -19.8025 -20.8333 -20.7957 -20.4861 -20.5446 -20.9814 -20.6132 -21.1059 -21.5953 -21.8087 -21.2554 -21.4135 -21.1544 -21.0306 -21.8638 -21.333 -20.9198 -20.4643 -20.4516 -20.7684 -20.6121 -20.5508 -21.0264 -21.7411 -21.5873 -22.4948 -22.3042 -22.1871 -22.2864 -23.1714 -23.6166 -23.5503 -23.4473 -23.2129 -22.4114 -22.6919 -23.7403 -22.9549 -23.3043 -22.8527 -23.2721 -23.1242 -23.1815 -23.8459 -24.4689 -23.5906 -24.0715 -25.2262 -25.3803 -23.5517 -24.6261 -26.3466 -22.2188 -22.1403 -22.738 -22.3499 -22.3421 -22.7573 -23.1517 -24.3722 -23.9731 -24.271 -23.2116 -23.0059 -23.0993 -24.1076 -24.0274 -24.581 -24.4862 -25.2178 -24.9297 -25.1335 -25.3889 -24.9708 -25.732 -24.5225 -24.7643 -24.1827 -23.5306 -24.052 -23.4635 -23.6095 -23.8016 -23.3599 -23.063 -22.0307 -22.687 -22.7413 -22.5857 -21.9463 -21.8552 -21.7545 -22.0669 -22.3933 -21.8509 -22.3628 -22.5226 -21.8278 -21.9287 -21.527 -21.9081 -22.1067 -21.3146 -21.6319 -21.4656 -21.409 -21.3845 -21.278 -20.2308 -21.4315 -20.8946 -21.4499 -20.4308 -20.0563 -19.8418 -20.1725 -20.3694 -20.6741 -20.0363 -19.9784 -19.7849 -19.8814 -19.7624 -19.7828 -19.6837 -19.4334 -19.3786 -19.3635 -19.1824 -19.2787 -19.414 -19.1651 -19.376 -19.4531 -19.4541 -19.57 -19.3554 -19.2441 -19.1652 -19.1468 -19.1825 -19.223 -19.321 -19.3201 -19.2078 -19.0649 -18.9872 -19.0488 -18.933 -18.933 -18.933 -18.933 -18.933 -18.933 -18.933 -18.933 -18.933 -18.933 -18.933 -18.933 -18.933 -18.933 -18.933 -18.933 -18.933 -18.933 -18.933 -18.933 -18.933 -18.933 -18.933 -18.933 -18.933 -18.933 -18.933 -18.933 -18.933 -18.933 -18.933 -18.933 -18.933 -18.933 -18.933 -18.933 -18.933 -18.933 -18.933 -18.933 -18.933 -18.933 -18.933 -18.933 -18.933 -18.933 -18.933 -18.933 -18.933 -18.933 -18.933 -18.933 -18.933 -18.933 -18.933 -18.933 -18.933 -18.933 -18.933 -18.933 -18.933 -18.933 -18.933 -18.933 -18.933 -18.933 -18.933 -18.933 -18.933 -18.933 -18.933 -18.933 -18.933 -18.933 -18.933 -18.933 -18.933 -18.933 -18.933 -18.933 -18.933 -18.933 -18.933 -18.933 -18.933 -18.933 -18.933 -18.933 -18.933 -18.933 -18.933 -18.933
-24.1514 -24.4526 -23.8172 -24.3368 -24.0427 -24.1389 -23.7162 -23.7583 -24.4683 -24.1621 -23.4181 -23.8898 -23.3675 -23.4461 -23.0267 -23.2717 -23.9837 -23.374 -22.8923 -22.5941 -23.5292 -23.0158 -22.4426 -22.4912 -22.3889 -22.9034 -22.8678 -21.9144 -21.6152 -21.7197 -22.1088 -21.9538 -21.611 -21.4385 -22.0245 -22.0296 -22.1766 -21.2263 -21.4557 -21.3635 -21.5497 -21.6676 -21.417 -21.7991 -20.9304 -21.0756 -21.5289 -21.1966 -21.5166 -21.3887 -21.8112 -22.5726 -22.6973 -20.9264 -22.1304 -21.8144 -21.4175 -21.0208 -20.5146 -20.1353 -20.6304 -19.9386 -20.0451 -20.8523 -20.4213 -20.6437 -21.3159 -20.6348 -20.6256 -20.2241 -20.1905 -20.1777 -20.2601 -20.5763 -20.4396 -20.0845 -19.9522 -19.8755 -19.8568 -19.8387 -19.8963 -19.8775 -19.8564 -19.8239 -19.9118 -19.7386 -19.704 -19.7009 -19.6629 -19.7019 -19.6828 -19.703 -19.7037 -19.7213 -19.8027 -19.6435 -19.6808 -20.3801 -20.8019 -20.8851 -21.3735 -20.8683 -20.8776 -21.0561 -21.0784 -20.9933 -21.1152 -20.7367 -20.6127 -21.0137 -21.3148 -21.0957 -20.6243 -20.296 -20.1593 -20.206 -20.3041 -20.6713 -21.439 -21.5892 -21.4911 -21.651 -22.2867 -22.6784 -23.5112 -22.8259 -22.858 -22.9328 -22.5168 -22.7471 -22.8882 -22.8588 -22.3314 -22.407 -22.5743 -22.3837 -22.3542 -22.0642 -23.3854 -23.3252 -23.0547 -25.2021 -24.1225 -24.7493 -23.0603 -22.9055 -22.7209 -22.0927 -22.1855 -22.2074 -22.4937 -23.074 -23.992 -24.3603 -23.6267 -24.0648 -24.3971 -23.2283 -24.0774 -24.1214 -23.6742 -24.0637 -24.6204 -24.6642 -25.4799 -25.445 -25.1049 -25.3823 -24.8345 -24.8093 -25.4243 -24.645 -24.1222 -23.4262 -23.1197 -23.686 -23.3785 -23.0639 -23.4044 -23.1439 -22.4302 -22.5484 -21.949 -22.02 -21.6311 -21.9363 -21.8475 -21.9228 -21.2135 -21.9015 -21.4228 -21.6615 -22.3905 -21.7819 -22.1187 -22.0966 -21.6706 -21.4431 -21.3043 -21.5251 -21.3942 -21.12 -20.9161 -20.6044 -20.5514 -20.6558 -20.4699 -20.5865 -20.9082 -20.9058 -19.5693 -19.7232 -20.2316 -19.9996 -19.839 -19.7626 -19.7593 -19.683 -19.6647 -19.5305 -19.5142 -19.4702 -19.4484 -19.2415 -19.0447 -19.0636 -19.0693 -19.1386 -19.3658 -19.4062 -19.4104 -19.4489 -19.2402 -19.1071 -19.0484 -18.945 -19.2024 -19.1601 -19.1051 -19.1086 -19.0635 -19.1087 -18.9518 -18.8333 -18.8333 -18.8333 -18.8333 -18.8333 -18.8333 -18.8333 -18.8333 -18.8333 -18.8333 -18.8333 -18.8333 -18.8333 -18.8333 -18.8333 -18.8333 -18.8333 -18.8333 -18.8333 -18.8333 -18.8333 -18.8333 -18.8333 -18.8333 -18.8333 -18.8333 -18.8333 -18.8333 -18.8333 -18.8333 -18.8333 -18.8333 -18.8333 -18.8333 -18.8333 -18.8333 -18.8333 -18.8333 -18.8333 -18.8333 -18.8333 -18.8333 -18.8333 -18.8333 -18.8333 -18.8333 -18.8333 -18.8333 -18.8333 -18.8333 -18.8333 -18.8333 -18.8333 -18.8333 -18.8333 -18.8333 -18.8333 -18.8333 -18.8333 -18.8333 -18.8333 -18.8333 -18.8333 -18.8333 -18.8333 -18.8333 -18.8333 -18.8333 -18.8333 -18.8333 -18.8333 -18.8333 -18.8333 -18.8333 -18.8333 -18.8333 -18.8333 -18.8333 -18.8333 -18.8333 -18.8333 -18.8333 -18.8333 -18.8333 -18.8333 -18.8333 -18.8333 -18.8333 -18.8333 -18.8333 -18.8333 -18.8333 -18.8333
-24.3466 -24.1776 -23.6477 -24.3548 -23.8006 -23.294 -23.3513 -23.8878 -23.8533 -24.4402 -23.088 -23.9898 -23.837 -23.1267 -22.5557 -22.6632 -23.3515 -22.885 -23.0973 -22.8198 -23.0056 -22.6937 -22.4729 -21.8853 -21.9725 -21.9935 -22.1024 -22.2212 -21.7006 -21.5359 -21.5288 -21.9004 -21.6861 -21.6001 -21.1641 -21.3608 -21.4598 -21.4336 -21.5964 -20.9273 -20.9679 -20.9836 -20.8707 -20.8086 -20.8126 -21.2241 -21.7744 -20.7196 -21.5424 -20.954 -21.5753 -21.5142 -21.2634 -21.4836 -20.7488 -20.5851 -20.6417 -20.192 -20.7001 -20.4497 -20.0766 -20.1418 -19.8089 -19.9777 -20.56 -20.2404 -20.3049 -20.6048 -20.1943 -20.2499 -19.8249 -20.2082 -20.0813 -20.3458 -20.2698 -20.7291 -19.9603 -19.7464 -19.7078 -19.6698 -19.65 -19.6903 -19.7295 -19.7079 -19.7067 -19.6848 -19.765 -19.5914 -19.5915 -19.5727 -19.5356 -19.5524 -19.554 -19.5339 -19.5895 -19.5736 -19.534 -20.3342 -20.1292 -20.4489 -20.8534 -20.3446 -20.7789 -20.9718 -20.3441 -20.2443 -20.5564 -21.1463 -20.7388 -20.7712 -21.065 -20.6175 -20.5739 -20.2905 -20.3492 -20.051 -20.3506 -20.8451 -21.3269 -21.2995 -21.4688 -21.817 -21.8601 -21.7785 -21.9746 -22.3915 -22.8803 -22.3588 -22.6474 -22.1502 -22.1315 -22.3699 -21.9555 -22.5081 -22.65 -21.8839 -21.0233 -24.0473 -21.784 -22.1033 -24.125 -25.2505 -25.1789 -26.7266 -22.0128 -21.8999 -21.8184 -22.5797 -23.2812 -22.3264 -23.1612 -23.0511 -25.1638 -24.3765 -23.7447 -24.2075 -24.0068 -24.3147 -25.5118 -24.9666 -24.9925 -24.9533 -24.8869 -25.4862 -24.5658 -24.1138 -24.8926 -24.8431 -24.6614 -24.4863 -25.0 -24.9227 -24.4773 -24.0252 -23.7396 -23.5728 -22.5426 -22.8849 -23.2445 -22.9619 -22.494 -22.4925 -22.0001 -21.558 -21.2003 -21.4482 -21.1003 -21.2608 -21.4662 -20.9646 -21.8126 -21.4087 -21.4174 -21.664 -21.4049 -21.7165 -21.527 -21.7705 -21.6554 -21.4605 -21.5397 -22.0504 -21.4871 -21.0057 -20.6098 -19.4939 -19.9974 -20.4953 -21.1494 -20.4253 -19.4454 -19.5574 -20.0476 -19.7853 -19.5332 -19.5343 -19.5707 -19.5155 -19.4967 -19.3805 -19.2824 -19.1315 -19.2669 -19.1861 -18.9155 -18.9546 -18.9162 -19.0311 -19.2267 -19.2516 -19.0386 -18.9997 -18.9551 -18.8963 -18.6663 -18.8589 -18.9563 -18.8606 -18.9759 -18.9352 -18.9921 -18.9406 -18.7037 -18.723 -18.723 -18.723 -18.723 -18.723 -18.723 -18.723 -18.723 -18.723 -18.723 -18.723 -18.723 -18.723 -18.723 -18.723 -18.723 -18.723 -18.723 -18.723 -18.723 -18.723 -18.723 -18.723 -18.723 -18.723 -18.723 -18.723 -18.723 -18.723 -18.723 -18.723 -18.723 -18.723 -18.723 -18.723 -18.723 -18.723 -18.723 -18.723 -18.723 -18.723 -18.723 -18.723 -18.723 -18.723 -18.723 -18.723 -18.723 -18.723 -18.723 -18.723 -18.723 -18.723 -18.723 -18.723 -18.723 -18.723 -18.723 -18.723 -18.723 -18.723 -18.723 -18.723 -18.723 -18.723 -18.723 -18.723 -18.723 -18.723 -18.723 -18.723 -18.723 -18.723 -18.723 -18.723 -18.723 -18.723 -18.723 -18.723 -18.723 -18.723 -18.723 -18.723 -18.723 -18.723 -18.723 -18.723 -18.723 -18.723 -18.723 -18.723 -18.723 -18.723
-23.9598 -23.9224 -23.5604 -23.7562 -23.2864 -23.8876 -23.844 -23.3729 -23.1842 -23.6815 -22.8571 -23.2064 -23.1435 -22.867 -23.0262 -22.3129 -22.4152 -22.7992 -22.5122 -22.5908 -22.7435 -22.379 -22.2039 -21.9027 -21.9415 -21.587 -21.4386 -21.4516 -21.6324 -21.2697 -21.6945 -21.1369 -21.0529 -21.184 -20.958 -21.3233 -20.9255 -20.847 -20.8718 -21.1058 -21.47 -20.8508 -20.9703 -21.1136 -21.0873 -20.6506 -20.5396 -20.5359 -21.8518 -20.6553 -21.0494 -20.591 -21.103 -20.7573 -20.7469 -21.0512 -20.6809 -20.6008 -20.0008 -20.0789 -20.3184 -20.131 -19.7898 -19.6098 -20.1887 -20.036 -20.2967 -20.7022 -20.312 -19.9611 -20.0186 -19.7087 -20.1133 -19.9536 -19.9142 -20.6944 -20.4645 -19.8431 -19.632 -19.5725 -19.5557 -19.4755 -19.4957 -19.496 -19.4217 -19.3985 -19.4586 -19.4756 -19.4575 -19.4566 -19.4575 -19.4016 -19.379 -19.4373 -19.4189 -19.3791 -19.4164 -20.207 -20.6284 -20.6992 -20.4501 -19.8086 -20.6179 -20.7605 -20.9425 -20.5875 -20.4214 -20.4934 -20.3061 -20.6296 -20.7275 -20.6117 -20.1348 -20.3469 -20.0383 -20.1437 -20.0696 -20.7358 -20.3504 -20.6736 -20.8441 -21.7674 -21.3775 -21.6028 -22.1378 -21.5563 -22.1677 -21.7402 -21.3004 -21.7 -21.5579 -21.6831 -21.6806 -21.447 -20.6921 -22.2277 -22.924 -21.6273 -22.1722 -23.7415 -24.2121 -25.2439 -22.7212 -21.8526 -22.2654 -21.6397 -22.2896 -22.2914 -23.3459 -22.8749 -23.8557 -25.0474 -24.482 -25.9012 -25.3619 -25.379 -25.4961 -25.6143 -26.1373 -24.4749 -24.8988 -24.2472 -24.23 -24.5137 -24.4091 -24.3908 -24.4485 -24.8408 -24.1905 -24.3061 -24.8003 -23.964 -24.0056 -23.7609 -23.186 -23.4803 -23.1356 -22.5109 -22.6058 -22.8811 -22.7633 -22.1522 -21.5304 -21.4444 -21.5702 -21.9818 -21.6712 -21.3524 -20.7026 -20.9636 -21.2122 -21.1977 -21.2992 -20.8248 -21.0881 -21.5311 -21.8525 -22.1883 -22.2014 -22.0316 -21.5381 -21.7642 -21.1555 -20.227 -19.9749 -19.6431 -19.4349 -19.4601 -19.6751 -19.7316 -19.7082 -19.6441 -19.6753 -19.5184 -19.5139 -19.4972 -19.3235 -19.3199 -19.2106 -19.2278 -19.1116 -19.0746 -18.9193 -18.9546 -18.9746 -18.7622 -18.742 -19.0105 -19.0359 -18.7637 -18.8763 -18.6866 -18.6841 -18.6275 -18.6681 -18.6267 -18.6267 -18.6267 -18.6267 -18.6267 -18.6267 -18.6267 -18.6267 -18.6267 -18.6267 -18.6267 -18.6267 -18.6267 -18.6267 -18.6267 -18.6267 -18.6267 -18.6267 -18.6267 -18.6267 -18.6267 -18.6267 -18.6267 -18.6267 -18.6267 -18.6267 -18.6267 -18.6267 -18.6267 -18.6267 -18.6267 -18.6267 -18.6267 -18.6267 -18.6267 -18.6267 -18.6267 -18.6267 -18.6267 -18.6267 -18.6267 -18.6267 -18.6267 -18.6267 -18.6267 -18.6267 -18.6267 -18.6267 -18.6267 -18.6267 -18.6267 -18.6267 -18.6267 -18.6267 -18.6267 -18.6267 -18.6267 -18.6267 -18.6267 -18.6267 -18.6267 -18.6267 -18.6267 -18.6267 -18.6267 -18.6267 -18.6267 -18.6267 -18.6267 -18.6267 -18.6267 -18.6267 -18.6267 -18.6267 -18.6267 -18.6267 -18.6267 -18.6267 -18.6267 -18.6267 -18.6267 -18.6267 -18.6267 -18.6267 -18.6267 -18.6267 -18.6267 -18.6267 -18.6267 -18.6267 -18.6267 -18.6267 -18.6267 -18.6267 -18.6267 -18.6267 -18.6267 -18.6267 -18.6267 -18.6267 -18.6267
-24.0271 -24.1183 -23.8066 -23.5441 -23.6456 -24.1817 -24.0165 -24.4733 -23.2747 -23.4779 -23.7928 -23.0812 -23.712 -22.7015 -23.3516 -22.8431 -22.2167 -23.269 -23.0299 -22.3379 -22.0561 -22.275 -22.2639 -21.5358 -21.4732 -21.6685 -21.6742 -21.3903 -21.858 -21.6066 -21.6506 -21.7364 -21.3799 -21.5025 -21.4812 -21.5576 -21.213 -21.0625 -21.0394 -20.6554 -20.6157 -21.1229 -21.0838 -21.0476 -21.286 -20.9296 -20.664 -20.2924 -20.3307 -20.6414 -20.2505 -20.3718 -20.9498 -21.106 -21.1649 -20.7616 -20.6177 -20.5032 -20.4562 -19.8058 -19.6793 -19.633 -19.4979 -19.4235 -19.5722 -19.8852 -20.1064 -20.1841 -20.666 -20.1233 -19.9568 -19.8271 -19.5152 -19.7687 -19.6175 -19.9746 -20.5888 -19.842 -19.7082 -19.4978 -19.4587 -19.4401 -19.3445 -19.3769 -19.5384 -19.2499 -19.3825 -19.3434 -19.3234 -19.3444 -19.266 -19.3024 -19.2864 -19.2468 -19.2827 -19.358 -19.2859 -19.344 -19.9516 -19.49 -19.6234 -20.0278 -19.8275 -19.8364 -19.9292 -19.9496 -20.0322 -20.4566 -20.8434 -20.5808 -20.1865 -20.0241 -20.1945 -19.9802 -20.3253 -19.752 -19.7636 -20.4522 -20.0842 -20.4689 -20.7361 -21.1933 -21.8847 -21.2325 -21.3493 -21.7573 -22.3811 -22.3358 -21.5965 -20.8713 -21.2681 -20.7972 -20.6694 -20.9862 -22.9379 -21.4909 -21.3093 -21.6889 -23.1674 -24.8296 -23.528 -22.276 -21.9385 -23.0429 -22.2538 -22.2145 -21.7477 -21.8203 -22.5807 -25.5499 -23.7457 -25.8804 -25.0243 -25.2197 -24.974 -25.3203 -25.509 -25.6864 -25.619 -24.9166 -24.3213 -24.1583 -23.8685 -24.3492 -23.6438 -23.7842 -24.1693 -24.3515 -23.9585 -23.9759 -23.9566 -24.0811 -23.7946 -23.8527 -23.0914 -22.8427 -22.653 -22.7278 -21.7595 -22.327 -22.4768 -21.9376 -21.6654 -22.23 -22.2761 -21.4236 -20.92 -21.4297 -21.3131 -20.9476 -20.5407 -20.6306 -20.5286 -21.0399 -21.5435 -21.9971 -22.1512 -21.614 -21.8952 -21.5721 -20.6299 -21.4363 -21.2569 -21.0457 -21.1024 -20.1479 -19.546 -19.1883 -19.3058 -19.1909 -19.1923 -19.5146 -19.7293 -19.5901 -19.3055 -19.3837 -19.1314 -19.165 -19.0164 -19.0331 -18.9949 -18.9357 -19.009 -19.0683 -18.9635 -18.7405 -18.6477 -18.6488 -18.7796 -18.5119 -18.7235 -18.763 -18.6197 -18.474 -18.5319 -18.5319 -18.5319 -18.5319 -18.5319 -18.5319 -18.5319 -18.5319 -18.5319 -18.5319 -18.5319 -18.5319 -18.5319 -18.5319 -18.5319 -18.5319 -18.5319 -18.5319 -18.5319 -18.5319 -18.5319 -18.5319 -18.5319 -18.5319 -18.5319 -18.5319 -18.5319 -18.5319 -18.5319 -18.5319 -18.5319 -18.5319 -18.5319 -18.5319 -18.5319 -18.5319 -18.5319 -18.5319 -18.5319 -18.5319 -18.5319 -18.5319 -18.5319 -18.5319 -18.5319 -18.5319 -18.5319 -18.5319 -18.5319 -18.5319 -18.5319 -18.5319 -18.5319 -18.5319 -18.5319 -18.5319 -18.5319 -18.5319 -18.5319 -18.5319 -18.5319 -18.5319 -18.5319 -18.5319 -18.5319 -18.5319 -18.5319 -18.5319 -18.5319 -18.5319 -18.5319 -18.5319 -18.5319 -18.5319 -18.5319 -18.5319 -18.5319 -18.5319 -18.5319 -18.5319 -18.5319 -18.5319 -18.5319 -18.5319 -18.5319 -18.5319 -18.5319 -18.5319 -18.5319 -18.5319 -18.5319 -18.5319 -18.5319 -18.5319 -18.5319 -18.5319 -18.5319 -18.5319 -18.5319 -18.5319 -18.5319 -18.5319
-24.0148 -24.0127 -23.8382 -23.7782 -24.0544 -24.2081 -24.4168 -25.1779 -25.4076 -24.6884 -24.0697 -23.7714 -22.7435 -23.3779 -23.3285 -22.9863 -22.3928 -22.5305 -23.0499 -22.2537 -21.9138 -21.5185 -21.5029 -21.6844 -22.0538 -21.939 -21.4377 -21.9183 -21.7292 -21.8758 -21.4982 -21.464 -21.2926 -21.5733 -21.5498 -21.514 -21.2542 -20.9805 -20.8434 -20.7515 -20.5522 -20.4928 -20.4545 -20.6641 -20.5385 -20.8863 -20.6052 -20.5909 -20.3746 -20.1374 -19.9903 -20.2563 -21.0149 -20.7184 -20.4249 -20.3409 -20.1875 -19.859 -19.9073 -19.7935 -20.3736 -20.0463 -20.0597 -19.3171 -19.3143 -19.5055 -19.8927 -20.4329 -20.0932 -20.0112 -19.7836 -19.9435 -19.7419 -19.3336 -19.4778 -19.7473 -20.5725 -19.8822 -19.5661 -19.4514 -19.3352 -19.2179 -19.2177 -19.3362 -19.3824 -19.2982 -19.2373 -19.2008 -19.1813 -19.1815 -19.2189 -19.1633 -19.0832 -19.1397 -19.1812 -19.1977 -19.3266 -19.3431 -20.3245 -20.2487 -20.1488 -20.2179 -20.4689 -20.8484 -20.2333 -20.2348 -20.7445 -20.6985 -21.1702 -20.4963 -20.0686 -20.4623 -19.9605 -19.7942 -19.9163 -20.0263 -19.5647 -20.0036 -20.3941 -20.2865 -20.1328 -20.5717 -21.214 -20.6449 -20.5315 -21.4763 -21.5485 -22.0623 -21.4813 -20.6892 -20.3274 -21.3685 -20.4929 -21.4093 -20.6562 -21.8015 -21.3693 -21.8874 -23.4442 -25.4078 -23.0964 -22.8659 -22.8374 -22.3952 -21.4064 -21.5422 -22.1484 -22.6184 -23.0931 -24.4315 -24.2421 -25.9273 -24.4661 -24.3659 -24.495 -26.1584 -26.2738 -25.1279 -25.1623 -25.006 -24.82 -24.173 -23.8932 -23.6249 -24.206 -24.3383 -23.9858 -23.879 -23.4358 -23.0203 -23.1834 -23.166 -23.1987 -23.3776 -23.0373 -22.3062 -22.5478 -22.1391 -21.2028 -22.2514 -22.2599 -21.7901 -22.3498 -21.8976 -21.1984 -21.8485 -21.1573 -21.5065 -21.2193 -20.6565 -20.4408 -20.7144 -20.5351 -20.7844 -20.6679 -21.7851 -21.658 -21.6575 -20.664 -21.0875 -21.3385 -20.5768 -20.5525 -20.9601 -20.8642 -20.5247 -20.2858 -20.4107 -19.7435 -19.7409 -19.6908 -18.884 -19.5303 -19.4508 -19.2923 -19.0075 -19.012 -18.8322 -18.794 -18.7773 -18.9026 -18.8871 -18.7581 -18.7383 -18.7974 -18.64 -18.6239 -18.5256 -18.5439 -18.3897 -18.5284 -18.4657 -18.4271 -18.4271 -18.4271 -18.4271 -18.4271 -18.4271 -18.4271 -18.4271 -18.4271 -18.4271 -18.4271 -18.4271 -18.4271 -18.4271 -18.4271 -18.4271 -18.4271 -18.4271 -18.4271 -18.4271 -18.4271 -18.4271 -18.4271 -18.4271 -18.4271 -18.4271 -18.4271 -18.4271 -18.4271 -18.4271 -18.4271 -18.4271 -18.4271 -18.4271 -18.4271 -18.4271 -18.4271 -18.4271 -18.4271 -18.4271 -18.4271 -18.4271 -18.4271 -18.4271 -18.4271 -18.4271 -18.4271 -18.4271 -18.4271 -18.4271 -18.4271 -18.4271 -18.4271 -18.4271 -18.4271 -18.4271 -18.4271 -18.4271 -18.4271 -18.4271 -18.4271 -18.4271 -18.4271 -18.4271 -18.4271 -18.4271 -18.4271 -18.4271 -18.4271 -18.4271 -18.4271 -18.4271 -18.4271 -18.4271 -18.4271 -18.4271 -18.4271 -18.4271 -18.4271 -18.4271 -18.4271 -18.4271 -18.4271 -18.4271 -18.4271 -18.4271 -18.4271 -18.4271 -18.4271 -18.4271 -18.4271 -18.4271 -18.4271 -18.4271 -18.4271 -18.4271 -18.4271 -18.4271 -18.4271 -18.4271 -18.4271 -18.4271 -18.4271 -18.4271
-24.0057 -24.1793 -23.9908 -24.1717 -25.0802 -24.8099 -25.2859 -24.5655 -24.5196 -24.3851 -23.7894 -22.969 -22.8763 -23.612 -22.8712 -22.8175 -22.6723 -22.8768 -22.6466 -22.5394 -22.0644 -22.044 -22.0091 -22.237 -21.665 -21.6464 -21.9368 -22.0398 -21.9575 -21.9667 -21.7182 -21.6371 -21.5001 -21.4674 -21.3092 -21.1 -20.9683 -21.0282 -20.9263 -20.9639 -20.6912 -20.4552 -20.5854 -20.2471 -20.1705 -20.1506 -20.1313 -20.2501 -20.1748 -20.2109 -20.1571 -19.9214 -20.1733 -20.0616 -20.2181 -20.7956 -20.4375 -20.6545 -20.1701 -20.0452 -20.2122 -19.9247 -19.8147 -19.1387 -19.13 -19.2638 -19.5701 -19.747 -19.9951 -19.9451 -19.6969 -19.7894 -19.9965 -19.4349 -19.2036 -19.6459 -19.9503 -19.5923 -19.4557 -19.3591 -19.2254 -19.186 -19.1655 -19.1271 -19.1831 -19.1654 -19.1088 -19.0684 -19.0877 -19.0887 -19.0497 -19.0293 -18.9757 -18.9934 -19.0279 -19.0869 -19.1088 -19.38 -20.2173 -20.144 -20.4305 -19.9321 -20.4285 -20.5587 -20.9519 -21.219 -20.7778 -21.2749 -21.0261 -20.3668 -19.9114 -19.8016 -19.9225 -19.5509 -19.8244 -19.476 -19.5493 -19.8199 -20.0995 -20.2772 -20.3192 -20.7271 -20.5315 -21.3471 -20.6539 -21.2352 -20.5743 -21.539 -21.7957 -21.1188 -20.7266 -20.3281 -21.3628 -20.3626 -21.5619 -21.5918 -22.0292 -22.8822 -24.4071 -23.1718 -22.9217 -23.917 -21.7898 -21.8353 -21.397 -21.8991 -22.6021 -25.1938 -22.99 -22.1825 -24.3685 -24.0928 -24.2921 -24.6181 -25.9434 -25.4087 -25.0091 -24.4314 -25.2725 -25.2632 -23.701 -23.1093 -23.1713 -23.7339 -24.3717 -23.9806 -23.6352 -23.6201 -22.6327 -23.3008 -23.2217 -22.7268 -22.5609 -23.1694 -22.799 -21.8528 -21.5128 -21.3526 -21.2559 -21.6964 -22.1789 -22.1496 -21.6209 -21.2032 -21.235 -21.2198 -21.036 -20.662 -20.4143 -20.8635 -20.7572 -20.0381 -21.1381 -19.8234 -20.7263 -21.0821 -20.8188 -20.7446 -21.2476 -20.4835 -20.8662 -20.8161 -20.9893 -20.2343 -20.0448 -19.7517 -20.2138 -20.0248 -20.2157 -19.7566 -19.5874 -19.0003 -18.9739 -19.1687 -19.2644 -19.0466 -19.0818 -18.8405 -18.7429 -18.6651 -18.7425 -18.7992 -18.8187 -18.7027 -18.6476 -18.6006 -18.5321 -18.5107 -18.2353 -18.4515 -18.4707 -18.3356 -18.3356 -18.3356 -18.3356 -18.3356 -18.3356 -18.3356 -18.3356 -18.3356 -18.3356 -18.3356 -18.3356 -18.3356 -18.3356 -18.3356 -18.3356 -18.3356 -18.3356 -18.3356 -18.3356 -18.3356 -18.3356 -18.3356 -18.3356 -18.3356 -18.3356 -18.3356 -18.3356 -18.3356 -18.3356 -18.3356 -18.3356 -18.3356 -18.3356 -18.3356 -18.3356 -18.3356 -18.3356 -18.3356 -18.3356 -18.3356 -18.3356 -18.3356 -18.3356 -18.3356 -18.3356 -18.3356 -18.3356 -18.3356 -18.3356 -18.3356 -18.3356 -18.3356 -18.3356 -18.3356 -18.3356 -18.3356 -18.3356 -18.3356 -18.3356 -18.3356 -18.3356 -18.3356 -18.3356 -18.3356 -18.3356 -18.3356 -18.3356 -18.3356 -18.3356 -18.3356 -18.3356 -18.3356 -18.3356 -18.3356 -18.3356 -18.3356 -18.3356 -18.3356 -18.3356 -18.3356 -18.3356 -18.3356 -18.3356 -18.3356 -18.3356 -18.3356 -18.3356 -18.3356 -18.3356 -18.3356 -18.3356 -18.3356 -18.3356 -18.3356 -18.3356 -18.3356 -18.3356 -18.3356 -18.3356 -18.3356 -18.3356 -18.3356 -18.3356 -18.3356
-24.6218 -24.7384 -24.2741 -24.4025 -24.4707 -24.2005 -24.1408 -24.5121 -23.9678 -24.0693 -23.6627 -22.9499 -22.5396 -22.8202 -22.5282 -22.3439 -22.4205 -23.0534 -22.7756 -22.4306 -22.6043 -22.8445 -22.3421 -21.9764 -22.1509 -22.1204 -22.1341 -21.7875 -21.5745 -21.363 -21.2831 -21.1422 -20.9544 -20.9715 -20.9521 -20.7172 -20.5649 -20.4738 -20.491 -20.7533 -21.0471 -20.8733 -20.5053 -20.3896 -20.3948 -20.0952 -20.0173 -19.9617 -19.9449 -19.9047 -19.8296 -19.8083 -19.7161 -19.9511 -20.28 -20.5062 -20.3586 -20.4282 -20.4341 -20.0469 -20.2054 -19.9536 -19.6078 -19.1868 -19.0371 -19.0186 -19.2475 -19.3687 -19.4182 -19.5656 -19.3411 -19.4394 -19.6336 -19.4732 -19.0946 -19.4376 -19.8143 -19.5041 -19.4417 -19.1797 -19.1151 -19.0568 -19.0572 -19.163 -19.0195 -18.9986 -18.9989 -18.9806 -18.9786 -18.9598 -18.9596 -18.9028 -18.8628 -18.8833 -18.9583 -18.9604 -19.0179 -19.9733 -20.2248 -20.1396 -20.3651 -20.5026 -21.0922 -20.6803 -20.9034 -20.6349 -20.8272 -20.7121 -20.8045 -20.8642 -20.0416 -19.9806 -19.6077 -19.5727 -19.4613 -19.3114 -19.3 -19.4597 -19.513 -19.9613 -20.1574 -20.1484 -20.6372 -20.9549 -20.1932 -21.1433 -20.6134 -20.6298 -21.8061 -21.5344 -20.8716 -20.3517 -20.8106 -21.3072 -21.5724 -21.8608 -21.6573 -23.2263 -22.4017 -22.1255 -22.6425 -21.8921 -21.7389 -21.592 -21.2773 -21.214 -21.8427 -22.2594 -23.8664 -24.3791 -23.3178 -24.1996 -26.5113 -24.9426 -24.5488 -24.5062 -24.5079 -25.0835 -24.2172 -23.7412 -23.3948 -23.6204 -24.0464 -23.9077 -23.8422 -23.408 -23.3213 -22.9237 -22.9691 -22.4608 -22.7838 -22.0594 -22.6359 -22.5333 -22.2008 -21.9058 -22.0566 -21.2831 -21.035 -21.2916 -21.6765 -22.0788 -21.767 -21.7113 -21.7656 -20.9348 -21.1136 -20.9371 -20.7867 -20.7339 -19.9873 -20.3318 -20.3515 -19.7691 -20.7271 -19.861 -20.0536 -21.2709 -21.0512 -20.2973 -19.8905 -20.4109 -20.3347 -20.2109 -20.1665 -19.7992 -19.5265 -19.6283 -19.8421 -19.2736 -19.2524 -19.2533 -18.7108 -18.7912 -18.8649 -18.7498 -18.8888 -18.6755 -18.6908 -18.6893 -18.7078 -18.5708 -18.499 -18.5174 -18.5917 -18.3864 -18.5724 -18.3615 -18.416 -18.31 -18.2457 -18.2457 -18.2457 -18.2457 -18.2457 -18.2457 -18.2457 -18.2457 -18.2457 -18.2457 -18.2457 -18.2457 -18.2457 -18.2457 -18.2457 -18.2457 -18.2457 -18.2457 -18.2457 -18.2457 -18.2457 -18.2457 -18.2457 -18.2457 -18.2457 -18.2457 -18.2457 -18.2457 -18.2457 -18.2457 -18.2457 -18.2457 -18.2457 -18.2457 -18.2457 -18.2457 -18.2457 -18.2457 -18.2457 -18.2457 -18.2457 -18.2457 -18.2457 -18.2457 -18.2457 -18.2457 -18.2457 -18.2457 -18.2457 -18.2457 -18.2457 -18.2457 -18.2457 -18.2457 -18.2457 -18.2457 -18.2457 -18.2457 -18.2457 -18.2457 -18.2457 -18.2457 -18.2457 -18.2457 -18.2457 -18.2457 -18.2457 -18.2457 -18.2457 -18.2457 -18.2457 -18.2457 -18.2457 -18.2457 -18.2457 -18.2457 -18.2457 -18.2457 -18.2457 -18.2457 -18.2457 -18.2457 -18.2457 -18.2457 -18.2457 -18.2457 -18.2457 -18.2457 -18.2457 -18.2457 -18.2457 -18.2457 -18.2457 -18.2457 -18.2457 -18.2457 -18.2457 -18.2457 -18.2457 -18.2457 -18.2457 -18.2457 -18.2457 -18.2457 -18.2457 -18.2457
-24.0781 -24.5099 -24.3065 -23.8422 -23.7891 -23.89 -23.8463 -24.6595 -23.9947 -23.347 -23.4594 -22.8872 -22.0737 -22.426 -22.1078 -22.109 -22.234 -22.9556 -22.8186 -22.342 -22.5024 -22.7614 -22.0326 -21.8966 -22.3952 -21.7482 -21.4933 -21.1209 -21.0462 -21.1911 -20.9488 -20.5026 -20.6793 -20.5243 -20.5795 -20.6246 -20.6001 -20.5076 -19.9442 -20.1787 -20.2571 -20.6608 -20.5792 -20.2334 -20.451 -20.4068 -20.4132 -20.2785 -20.3111 -20.3845 -19.9821 -19.6715 -19.556 -19.5575 -20.0833 -19.9927 -20.2262 -20.1054 -20.2999 -20.1458 -20.1038 -19.8919 -19.8485 -19.6451 -19.7511 -18.8984 -18.8795 -18.8837 -19.0955 -19.424 -19.1573 -19.3494 -19.4867 -19.5066 -18.859 -19.155 -19.4721 -19.4451 -19.2288 -19.1364 -18.9768 -18.8997 -18.899 -18.9506 -18.9201 -18.9207 -18.861 -18.8044 -18.8402 -18.9003 -18.8211 -18.802 -18.7645 -18.8202 -18.8417 -18.841 -18.8794 -20.05 -19.7302 -20.2083 -20.5692 -20.3916 -20.6063 -20.1554 -20.4918 -20.2617 -20.4146 -20.7013 -20.8654 -20.417 -19.9046 -19.7348 -20.2102 -19.6953 -19.3053 -19.4781 -19.1518 -19.243 -19.9356 -20.0735 -20.3164 -20.3429 -20.1552 -20.8603 -20.1941 -20.457 -20.1039 -20.7539 -20.7416 -21.5942 -20.9109 -21.1145 -20.3349 -21.5073 -21.8262 -21.3268 -22.459 -21.9669 -21.8879 -22.3946 -21.1746 -21.0806 -21.0454 -21.4811 -22.6147 -21.6086 -21.7229 -23.8216 -28.7659 -24.2991 -23.7435 -25.0054 -25.2468 -23.819 -24.2254 -24.6341 -24.5817 -24.2364 -22.8867 -22.7958 -23.0221 -23.5397 -23.6172 -23.784 -23.357 -22.9497 -23.3277 -23.0591 -22.7643 -22.1816 -22.2516 -21.6409 -22.0672 -22.1787 -22.2188 -21.3526 -21.2074 -21.4561 -20.9455 -21.1398 -21.8431 -21.917 -21.8723 -21.4433 -21.8897 -21.8137 -21.554 -21.0788 -21.2624 -20.7558 -20.7173 -20.4763 -20.7501 -20.3334 -18.9634 -20.0497 -20.2364 -20.5994 -20.4689 -20.5218 -20.1403 -19.8261 -19.3858 -19.5843 -19.5264 -19.7704 -19.955 -19.2681 -19.2504 -19.1141 -19.0518 -19.0762 -18.9163 -18.5924 -18.5904 -18.5904 -18.507 -18.4537 -18.4353 -18.5941 -18.5687 -18.5737 -18.4366 -18.2454 -18.2605 -18.3993 -18.3229 -18.2476 -18.2556 -18.1465 -18.1465 -18.1465 -18.1465 -18.1465 -18.1465 -18.1465 -18.1465 -18.1465 -18.1465 -18.1465 -18.1465 -18.1465 -18.1465 -18.1465 -18.1465 -18.1465 -18.1465 -18.1465 -18.1465 -18.1465 -18.1465 -18.1465 -18.1465 -18.1465 -18.1465 -18.1465 -18.1465 -18.1465 -18.1465 -18.1465 -18.1465 -18.1465 -18.1465 -18.1465 -18.1465 -18.1465 -18.1465 -18.1465 -18.1465 -18.1465 -18.1465 -18.1465 -18.1465 -18.1465 -18.1465 -18.1465 -18.1465 -18.1465 -18.1465 -18.1465 -18.1465 -18.1465 -18.1465 -18.1465 -18.1465 -18.1465 -18.1465 -18.1465 -18.1465 -18.1465 -18.1465 -18.1465 -18.1465 -18.1465 -18.1465 -18.1465 -18.1465 -18.1465 -18.1465 -18.1465 -18.1465 -18.1465 -18.1465 -18.1465 -18.1465 -18.1465 -18.1465 -18.1465 -18.1465 -18.1465 -18.1465 -18.1465 -18.1465 -18.1465 -18.1465 -18.1465 -18.1465 -18.1465 -18.1465 -18.1465 -18.1465 -18.1465 -18.1465 -18.1465 -18.1465 -18.1465 -18.1465 -18.1465 -18.1465 -18.1465 -18.1465 -18.1465 -18.1465 -18.1465 -18.1465 -18.1465
-23.9322 -24.739 -24.3635 -24.3691 -23.6281 -23.0586 -24.3677 -23.2639 -23.3734 -23.7177 -22.5223 -22.2588 -22.0745 -21.805 -22.2778 -21.8728 -21.8922 -22.4903 -22.0772 -22.4514 -22.1917 -22.1774 -22.1785 -22.1824 -21.8513 -22.1571 -21.6622 -21.3852 -21.0953 -20.9544 -20.7666 -20.5367 -20.4028 -20.123 -20.1796 -20.1878 -20.0271 -19.9539 -19.8552 -19.8729 -19.8707 -20.1462 -19.9516 -20.2991 -20.0306 -19.857 -19.8609 -19.8817 -19.9708 -19.7588 -20.4607 -20.3014 -19.5321 -19.4697 -19.7121 -19.9411 -20.1916 -19.9209 -20.2706 -20.083 -19.5609 -19.4339 -19.3764 -19.0286 -18.9589 -18.8801 -19.0091 -18.7365 -18.8489 -18.8161 -18.988 -19.0713 -19.1599 -19.1892 -18.7408 -18.9824 -19.2383 -19.3725 -19.1994 -19.0502 -18.8141 -18.7737 -18.7747 -18.7741 -18.8008 -18.8353 -18.737 -18.795 -18.717 -18.7362 -18.7537 -18.737 -18.7166 -18.716 -18.7532 -18.7555 -19.2642 -19.6013 -20.195 -20.1992 -20.5073 -20.3623 -19.9723 -20.1436 -20.2755 -20.6941 -21.0305 -21.2201 -20.8203 -20.4035 -19.8985 -19.8974 -19.8945 -20.0212 -19.6606 -19.3409 -19.1398 -19.0243 -19.6194 -19.6162 -19.8528 -20.1335 -20.0906 -20.2589 -20.0226 -20.3592 -20.0957 -20.2579 -20.8982 -21.2294 -20.5818 -21.4436 -21.4148 -20.7114 -21.0985 -22.5648 -21.2307 -21.6867 -23.3872 -21.5116 -21.5743 -20.5692 -21.1295 -21.7685 -21.5843 -22.4106 -23.905 -25.0245 -25.0117 -24.0903 -24.0459 -24.4352 -23.1334 -24.0003 -25.7545 -24.6169 -23.4197 -22.2815 -23.2952 -23.1683 -23.8449 -23.2745 -23.0734 -23.12 -23.1343 -22.9359 -23.0527 -23.2502 -23.2146 -22.3513 -21.7195 -21.4987 -21.8163 -22.1165 -21.2093 -21.5275 -20.9607 -21.466 -21.2291 -20.79 -21.0583 -20.8597 -21.3876 -21.4195 -21.1105 -21.32 -21.223 -20.8353 -20.4564 -20.3946 -20.98 -20.9016 -20.0646 -20.0945 -18.82 -18.9862 -19.4417 -20.3386 -19.7238 -19.8316 -20.0968 -20.0491 -19.8788 -19.6787 -19.1765 -19.1447 -19.2041 -19.0496 -19.1223 -19.0082 -18.9109 -18.76 -18.6959 -18.7567 -18.6011 -18.6173 -18.6366 -18.5285 -18.6006 -18.5066 -18.2531 -18.4845 -18.3122 -18.4049 -18.2932 -18.1985 -18.1411 -18.0599 -18.0599 -18.0599 -18.0599 -18.0599 -18.0599 -18.0599 -18.0599 -18.0599 -18.0599 -18.0599 -18.0599 -18.0599 -18.0599 -18.0599 -18.0599 -18.0599 -18.0599 -18.0599 -18.0599 -18.0599 -18.0599 -18.0599 -18.0599 -18.0599 -18.0599 -18.0599 -18.0599 -18.0599 -18.0599 -18.0599 -18.0599 -18.0599 -18.0599 -18.0599 -18.0599 -18.0599 -18.0599 -18.0599 -18.0599 -18.0599 -18.0599 -18.0599 -18.0599 -18.0599 -18.0599 -18.0599 -18.0599 -18.0599 -18.0599 -18.0599 -18.0599 -18.0599 -18.0599 -18.0599 -18.0599 -18.0599 -18.0599 -18.0599 -18.0599 -18.0599 -18.0599 -18.0599 -18.0599 -18.0599 -18.0599 -18.0599 -18.0599 -18.0599 -18.0599 -18.0599 -18.0599 -18.0599 -18.0599 -18.0599 -18.0599 -18.0599 -18.0599 -18.0599 -18.0599 -18.0599 -18.0599 -18.0599 -18.0599 -18.0599 -18.0599 -18.0599 -18.0599 -18.0599 -18.0599 -18.0599 -18.0599 -18.0599 -18.0599 -18.0599 -18.0599 -18.0599 -18.0599 -18.0599 -18.0599 -18.0599 -18.0599 -18.0599 -18.0599 -18.0599 -18.0599 -18.0599 -18.0599 -18.0599
-23.5836 -23.7266 -23.5171 -23.497 -23.6024 -22.7724 -23.3109 -23.7987 -23.2384 -23.314 -22.6151 -22.1706 -21.6298 -21.2845 -21.9414 -21.3542 -21.8726 -22.4643 -21.9203 -21.9781 -21.5582 -21.4698 -21.3994 -21.8987 -22.0583 -21.4131 -21.1828 -20.9715 -20.8178 -20.5579 -20.6962 -20.8116 -20.7994 -20.6042 -20.3354 -20.2174 -19.9391 -19.9004 -19.9112 -19.8174 -19.7124 -19.6338 -19.6957 -19.6342 -19.5811 -19.6895 -19.7573 -19.3938 -19.3844 -19.462 -19.5008 -19.8871 -19.4785 -19.3256 -19.3315 -19.6603 -19.9652 -19.6417 -20.0463 -20.093 -20.1299 -19.9421 -19.5939 -19.5748 -19.2319 -19.0061 -18.9289 -19.0579 -18.6111 -18.652 -18.5753 -18.6926 -18.803 -18.7921 -18.6689 -19.0133 -19.2903 -19.0777 -19.052 -18.7488 -18.6694 -18.6698 -18.7082 -18.6703 -18.6904 -18.6907 -18.6162 -18.6697 -18.6321 -18.575 -18.632 -18.6298 -18.6524 -18.5913 -18.6309 -18.6309 -19.8033 -19.9568 -20.026 -20.3499 -19.9281 -19.7409 -20.4885 -20.5586 -20.6046 -20.6672 -20.9722 -21.0266 -21.2497 -20.6088 -19.6843 -19.7521 -19.5199 -19.4603 -19.8852 -19.4273 -19.2725 -18.9993 -18.972 -19.7924 -19.9355 -19.3509 -19.9812 -19.8352 -19.7464 -19.7655 -19.7948 -20.196 -20.5632 -20.1115 -21.8963 -20.9147 -21.2815 -21.2002 -21.1209 -20.7453 -21.2391 -22.125 -21.2828 -20.9541 -20.7861 -20.6652 -20.749 -21.2986 -22.7031 -24.3394 -24.9012 -25.085 -24.2212 -24.0424 -22.82 -23.4498 -23.3024 -24.3163 -25.4688 -23.4264 -22.9313 -22.7358 -22.5122 -22.6322 -23.2885 -23.0104 -23.1143 -23.1554 -23.0316 -22.7109 -23.1025 -22.6593 -22.0169 -22.3786 -22.0624 -21.7401 -21.5331 -21.6464 -21.6167 -20.7734 -21.0485 -21.2191 -21.4932 -20.5453 -20.8101 -20.6552 -21.3619 -21.1718 -20.7678 -21.0149 -20.6229 -21.0712 -20.7632 -20.2812 -20.4296 -20.7389 -20.41 -20.024 -19.7233 -18.6585 -18.8095 -19.4865 -19.5849 -19.708 -19.5856 -19.5657 -19.3516 -19.483 -19.3118 -19.028 -18.7872 -18.7672 -18.943 -18.8257 -18.7304 -18.5767 -18.5161 -18.5729 -18.5337 -18.6472 -18.3803 -18.3802 -18.3812 -18.323 -18.2443 -18.263 -18.1272 -18.1913 -18.2865 -18.167 -18.0714 -17.9749 -17.9749 -17.9749 -17.9749 -17.9749 -17.9749 -17.9749 -17.9749 -17.9749 -17.9749 -17.9749 -17.9749 -17.9749 -17.9749 -17.9749 -17.9749 -17.9749 -17.9749 -17.9749 -17.9749 -17.9749 -17.9749 -17.9749 -17.9749 -17.9749 -17.9749 -17.9749 -17.9749 -17.9749 -17.9749 -17.9749 -17.9749 -17.9749 -17.9749 -17.9749 -17.9749 -17.9749 -17.9749 -17.9749 -17.9749 -17.9749 -17.9749 -17.9749 -17.9749 -17.9749 -17.9749 -17.9749 -17.9749 -17.9749 -17.9749 -17.9749 -17.9749 -17.9749 -17.9749 -17.9749 -17.9749 -17.9749 -17.9749 -17.9749 -17.9749 -17.9749 -17.9749 -17.9749 -17.9749 -17.9749 -17.9749 -17.9749 -17.9749 -17.9749 -17.9749 -17.9749 -17.9749 -17.9749 -17.9749 -17.9749 -17.9749 -17.9749 -17.9749 -17.9749 -17.9749 -17.9749 -17.9749 -17.9749 -17.9749 -17.9749 -17.9749 -17.9749 -17.9749 -17.9749 -17.9749 -17.9749 -17.9749 -17.9749 -17.9749 -17.9749 -17.9749 -17.9749 -17.9749 -17.9749 -17.9749 -17.9749 -17.9749 -17.9749 -17.9749 -17.9749 -17.9749 -17.9749 -17.9749 -17.9749
-24.4052 -23.9065 -23.3785 -23.3327 -22.457 -22.5991 -23.0096 -23.8207 -23.4313 -22.2342 -22.4091 -21.7315 -21.7333 -21.1147 -21.3061 -21.2536 -21.8978 -22.0528 -21.7894 -21.5184 -21.1589 -20.9643 -21.9544 -21.7147 -21.325 -21.3986 -21.0495 -20.8369 -20.9928 -21.19 -20.8988 -20.6641 -20.5319 -20.2129 -20.2173 -20.2849 -20.3973 -20.4291 -20.4353 -20.1282 -20.3097 -19.9519 -19.992 -19.9002 -19.9595 -19.5073 -19.6811 -19.9727 -19.6412 -19.3815 -19.1941 -19.4846 -19.1175 -19.1552 -19.5732 -19.5961 -19.6376 -19.6657 -19.5709 -19.9018 -19.9144 -19.4277 -19.8004 -19.621 -19.4306 -19.5011 -19.4988 -19.462 -19.1601 -19.0774 -18.6843 -18.5571 -18.5004 -18.4554 -18.9034 -19.004 -19.0565 -18.9811 -19.0036 -18.6533 -18.5774 -18.5572 -18.5767 -18.538 -18.5949 -18.5389 -18.4616 -18.537 -18.5173 -18.5004 -18.4991 -18.4999 -18.5185 -18.5571 -18.5577 -18.6177 -19.6992 -19.4958 -20.0881 -20.2959 -20.1513 -20.068 -20.1298 -20.4258 -20.7851 -20.7069 -20.6821 -21.0388 -21.4698 -20.4527 -20.8494 -20.1337 -19.7175 -19.2005 -19.4145 -19.2945 -19.3312 -19.1974 -18.8072 -19.5295 -19.7746 -19.2684 -19.1896 -19.8245 -19.5317 -19.7223 -18.7135 -19.0538 -19.5479 -20.3361 -20.4944 -21.6448 -21.2306 -20.5102 -20.4214 -21.2357 -21.3159 -21.6944 -21.4744 -21.1889 -20.4862 -21.4153 -20.8943 -20.9928 -22.2454 -23.5474 -23.292 -23.5384 -23.7427 -23.2992 -23.0496 -22.3912 -23.0964 -23.8632 -22.9695 -23.2403 -22.3309 -22.0708 -22.4952 -22.8148 -22.9928 -23.2842 -22.3996 -22.8436 -22.5225 -22.8101 -23.3783 -22.9928 -22.3337 -21.5905 -21.7683 -20.8476 -20.9684 -21.3796 -21.1082 -21.3241 -20.8823 -20.3617 -20.3572 -20.3424 -21.1499 -20.9562 -20.5321 -21.0073 -20.3062 -20.6443 -20.3181 -20.1527 -20.5676 -20.5335 -20.1968 -19.8563 -19.7785 -19.4827 -19.4991 -19.0066 -18.6751 -19.0685 -19.4252 -19.5596 -19.1868 -19.0399 -19.3778 -19.087 -19.1176 -18.869 -18.7889 -18.7125 -18.7113 -18.6751 -18.5216 -18.4802 -18.423 -18.4585 -18.5007 -18.4482 -18.2867 -18.357 -18.0814 -18.2068 -18.2662 -18.1918 -18.1536 -18.1854 -18.0752 -18.0186 -17.9918 -17.8812 -17.8812 -17.8812 -17.8812 -17.8812 -17.8812 -17.8812 -17.8812 -17.8812 -17.8812 -17.8812 -17.8812 -17.8812 -17.8812 -17.8812 -17.8812 -17.8812 -17.8812 -17.8812 -17.8812 -17.8812 -17.8812 -17.8812 -17.8812 -17.8812 -17.8812 -17.8812 -17.8812 -17.8812 -17.8812 -17.8812 -17.8812 -17.8812 -17.8812 -17.8812 -17.8812 -17.8812 -17.8812 -17.8812 -17.8812 -17.8812 -17.8812 -17.8812 -17.8812 -17.8812 -17.8812 -17.8812 -17.8812 -17.8812 -17.8812 -17.8812 -17.8812 -17.8812 -17.8812 -17.8812 -17.8812 -17.8812 -17.8812 -17.8812 -17.8812 -17.8812 -17.8812 -17.8812 -17.8812 -17.8812 -17.8812 -17.8812 -17.8812 -17.8812 -17.8812 -17.8812 -17.8812 -17.8812 -17.8812 -17.8812 -17.8812 -17.8812 -17.8812 -17.8812 -17.8812 -17.8812 -17.8812 -17.8812 -17.8812 -17.8812 -17.8812 -17.8812 -17.8812 -17.8812 -17.8812 -17.8812 -17.8812 -17.8812 -17.8812 -17.8812 -17.8812 -17.8812 -17.8812 -17.8812 -17.8812 -17.8812 -17.8812 -17.8812 -17.8812 -17.8812 -17.8812 -17.8812 -17.8812 -17.8812
-25.1962 -24.8074 -23.7353 -23.1357 -23.3531 -22.5334 -22.125 -22.7589 -23.2019 -22.2624 -21.8435 -22.1086 -21.3764 -21.3744 -20.8956 -21.2506 -22.0954 -21.8229 -21.6056 -20.8156 -20.8085 -21.0485 -21.3364 -21.2254 -21.1248 -20.8728 -21.2215 -21.4072 -21.3348 -20.8121 -20.8962 -20.4406 -20.5201 -20.7111 -20.4619 -20.8764 -20.3139 -20.1977 -20.1979 -20.3731 -19.9941 -19.9923 -19.7851 -19.7445 -20.1799 -19.9636 -19.7193 -19.7915 -19.8474 -19.7533 -19.9024 -19.1305 -19.0521 -19.1242 -19.3993 -19.231 -19.423 -19.375 -19.2693 -19.4538 -19.7348 -19.1901 -19.2111 -19.2565 -19.1939 -19.2797 -19.0128 -19.0743 -19.0913 -18.6731 -18.7299 -18.3812 -18.2466 -18.4496 -18.7778 -18.8037 -18.8997 -18.8221 -18.7985 -18.4949 -18.4366 -18.4561 -18.5119 -18.4736 -18.4231 -18.4556 -18.4163 -18.454 -18.4174 -18.4201 -18.3579 -18.4 -18.4169 -18.4352 -18.4769 -18.5458 -19.4724 -19.6284 -19.7362 -19.8586 -19.525 -20.0136 -19.9259 -20.4668 -20.6475 -20.7661 -21.205 -20.8032 -20.9147 -21.0281 -20.8304 -20.9028 -19.7154 -19.2765 -18.9403 -19.169 -19.1905 -18.9009 -18.8229 -18.8419 -19.0836 -19.5201 -19.5586 -18.9328 -19.3156 -19.6223 -18.6297 -19.1366 -20.055 -19.8821 -20.3807 -20.7202 -21.0342 -20.4458 -21.7805 -20.8565 -20.838 -21.3697 -21.0262 -20.7343 -20.2639 -20.9214 -22.3325 -22.4518 -23.4472 -22.7781 -22.6855 -22.8192 -23.1484 -23.5437 -22.7571 -21.924 -21.9224 -22.9427 -22.4667 -22.4883 -22.2339 -22.0154 -22.1377 -22.2418 -22.9684 -22.8579 -22.8828 -22.2731 -22.6216 -22.96 -22.8904 -22.57 -21.9633 -21.4306 -20.7317 -20.9285 -20.4855 -20.5827 -21.3652 -20.8613 -20.7729 -20.3645 -20.5824 -20.1343 -21.1335 -21.2426 -19.9165 -20.5077 -20.6965 -20.0015 -20.2331 -20.2568 -20.0707 -19.9994 -20.1863 -20.1758 -19.6854 -19.441 -19.2502 -19.4654 -18.995 -18.5177 -18.6291 -19.3721 -18.7692 -19.2468 -19.1902 -18.809 -18.8447 -18.6693 -18.6511 -18.6684 -18.5735 -18.3225 -18.4353 -18.3399 -18.5827 -18.4205 -18.2811 -18.287 -18.3563 -18.136 -17.8818 -18.1516 -17.9534 -18.0309 -18.1088 -17.9927 -18.1307 -17.9597 -17.762 -17.7996 -17.7996 -17.7996 -17.7996 -17.7996 -17.7996 -17.7996 -17.7996 -17.7996 -17.7996 -17.7996 -17.7996 -17.7996 -17.7996 -17.7996 -17.7996 -17.7996 -17.7996 -17.7996 -17.7996 -17.7996 -17.7996 -17.7996 -17.7996 -17.7996 -17.7996 -17.7996 -17.7996 -17.7996 -17.7996 -17.7996 -17.7996 -17.7996 -17.7996 -17.7996 -17.7996 -17.7996 -17.7996 -17.7996 -17.7996 -17.7996 -17.7996 -17.7996 -17.7996 -17.7996 -17.7996 -17.7996 -17.7996 -17.7996 -17.7996 -17.7996 -17.7996 -17.7996 -17.7996 -17.7996 -17.7996 -17.7996 -17.7996 -17.7996 -17.7996 -17.7996 -17.7996 -17.7996 -17.7996 -17.7996 -17.7996 -17.7996 -17.7996 -17.7996 -17.7996 -17.7996 -17.7996 -17.7996 -17.7996 -17.7996 -17.7996 -17.7996 -17.7996 -17.7996 -17.7996 -17.7996 -17.7996 -17.7996 -17.7996 -17.7996 -17.7996 -17.7996 -17.7996 -17.7996 -17.7996 -17.7996 -17.7996 -17.7996 -17.7996 -17.7996 -17.7996 -17.7996 -17.7996 -17.7996 -17.7996 -17.7996 -17.7996 -17.7996 -17.7996 -17.7996 -17.7996 -17.7996 -17.7996 -17.7996
-24.6593 -24.1381 -24.8479 -23.9441 -23.6094 -22.5738 -22.974 -21.7358 -23.1654 -22.4235 -21.727 -21.3567 -21.6051 -21.2572 -20.4846 -20.978 -21.6914 -21.7236 -21.3134 -21.0045 -20.6338 -21.1996 -21.1024 -20.8312 -20.7108 -20.756 -20.767 -21.0954 -20.8878 -20.9422 -20.7126 -20.7392 -20.8615 -21.0217 -20.4935 -20.215 -19.9308 -20.0004 -19.8223 -19.6891 -19.7196 -20.1114 -19.6468 -19.3776 -19.4913 -20.2899 -19.5231 -19.777 -19.1843 -19.3603 -19.7325 -19.1725 -18.9157 -19.1353 -19.3014 -19.2094 -19.3722 -19.0009 -19.2748 -19.5686 -19.7241 -19.251 -18.878 -18.975 -19.3593 -18.6683 -19.2082 -18.9583 -19.1153 -19.1258 -18.8983 -18.6518 -18.2791 -18.2798 -18.5492 -18.7207 -18.5701 -18.6453 -18.4141 -18.3586 -18.3775 -18.4306 -18.5497 -18.3766 -18.4707 -18.3375 -18.3194 -18.3382 -18.3194 -18.3369 -18.3367 -18.3394 -18.3559 -18.3747 -18.5224 -19.758 -19.2921 -19.7239 -19.9579 -19.48 -19.7942 -19.7939 -20.3588 -20.1059 -20.6205 -20.7367 -20.59 -21.114 -20.8502 -20.5268 -20.6381 -20.9256 -19.4833 -19.3662 -19.152 -18.739 -18.9147 -18.7652 -19.0155 -18.4494 -18.6326 -18.6923 -19.0537 -19.4682 -19.3122 -19.1968 -18.4743 -19.594 -19.0278 -19.4434 -20.492 -20.0759 -20.3732 -19.7744 -20.0503 -20.458 -20.9415 -21.0953 -20.6088 -20.6257 -21.2711 -21.559 -21.7019 -23.4485 -22.5763 -22.5451 -22.1323 -21.5741 -22.5516 -22.2926 -22.0556 -21.5933 -21.8936 -22.1849 -22.2589 -21.7372 -21.7383 -22.0736 -22.4012 -22.8885 -22.9409 -22.8482 -22.4768 -22.1305 -22.3304 -22.4843 -22.4203 -22.3057 -22.5272 -21.999 -21.4733 -20.9633 -20.381 -20.4044 -21.0483 -21.2614 -21.4277 -20.2616 -20.4643 -19.9271 -20.2604 -20.0147 -19.8174 -19.5569 -20.3212 -20.1964 -19.8328 -19.6784 -19.2668 -19.751 -19.7981 -19.6586 -19.5967 -19.4778 -19.4048 -19.2904 -18.863 -19.1315 -18.7912 -18.4127 -18.9267 -19.0176 -18.9085 -18.6086 -18.5111 -18.496 -18.3205 -18.3025 -18.3207 -18.3181 -18.2776 -18.2776 -18.1055 -18.1607 -17.9949 -18.1412 -18.2826 -17.953 -17.8222 -17.8513 -17.9502 -18.0448 -17.897 -17.769 -17.7214 -17.6604 -17.7195 -17.7195 -17.7195 -17.7195 -17.7195 -17.7195 -17.7195 -17.7195 -17.7195 -17.7195 -17.7195 -17.7195 -17.7195 -17.7195 -17.7195 -17.7195 -17.7195 -17.7195 -17.7195 -17.7195 -17.7195 -17.7195 -17.7195 -17.7195 -17.7195 -17.7195 -17.7195 -17.7195 -17.7195 -17.7195 -17.7195 -17.7195 -17.7195 -17.7195 -17.7195 -17.7195 -17.7195 -17.7195 -17.7195 -17.7195 -17.7195 -17.7195 -17.7195 -17.7195 -17.7195 -17.7195 -17.7195 -17.7195 -17.7195 -17.7195 -17.7195 -17.7195 -17.7195 -17.7195 -17.7195 -17.7195 -17.7195 -17.7195 -17.7195 -17.7195 -17.7195 -17.7195 -17.7195 -17.7195 -17.7195 -17.7195 -17.7195 -17.7195 -17.7195 -17.7195 -17.7195 -17.7195 -17.7195 -17.7195 -17.7195 -17.7195 -17.7195 -17.7195 -17.7195 -17.7195 -17.7195 -17.7195 -17.7195 -17.7195 -17.7195 -17.7195 -17.7195 -17.7195 -17.7195 -17.7195 -17.7195 -17.7195 -17.7195 -17.7195 -17.7195 -17.7195 -17.7195 -17.7195 -17.7195 -17.7195 -17.7195 -17.7195 -17.7195 -17.7195 -17.7195 -17.7195 -17.7195 -17.7195 -17.7195 -17.7195
-24.0332 -24.6177 -24.3162 -24.8236 -24.3902 -23.3175 -22.3075 -22.4428 -21.8257 -22.3335 -21.6476 -22.0209 -21.2361 -20.7495 -20.5301 -20.695 -21.2423 -21.5124 -20.7633 -20.4718 -20.7162 -21.1436 -20.9503 -20.8544 -20.4552 -20.494 -20.497 -20.6076 -20.4508 -20.4181 -20.3041 -20.4372 -20.3793 -20.6621 -20.6535 -20.1478 -20.2171 -19.8735 -19.9303 -19.6377 -19.2903 -19.4343 -20.0229 -19.6151 -19.5003 -19.7561 -19.7956 -19.0604 -19.2912 -19.2568 -18.951 -18.9697 -18.8281 -19.5816 -19.6062 -19.1194 -19.0767 -18.8311 -19.5031 -19.5051 -19.7198 -19.4295 -19.0911 -18.7046 -18.8682 -19.0393 -18.8505 -18.9274 -18.7749 -18.8492 -18.9853 -18.3675 -18.1549 -18.0793 -18.3006 -18.5777 -18.3955 -18.4557 -18.2725 -18.2336 -18.2098 -18.2893 -18.315 -18.2652 -18.171 -18.2893 -18.2301 -18.2287 -18.2118 -18.2876 -18.21 -18.2698 -18.2872 -18.212 -19.2898 -19.3774 -19.6489 -19.3168 -19.6201 -19.0644 -19.5008 -19.7974 -20.1826 -20.2919 -20.3194 -20.2602 -20.9811 -20.6413 -20.5967 -20.5114 -20.1819 -20.2583 -20.0487 -20.1003 -19.2426 -18.9309 -18.5977 -18.6622 -18.6093 -18.4498 -18.8723 -18.8421 -18.9952 -19.4735 -19.0098 -18.3835 -18.6156 -19.7805 -20.0967 -19.5831 -20.062 -19.2716 -19.3034 -20.5929 -20.2803 -20.6732 -21.1882 -21.8975 -21.2186 -20.2139 -20.8348 -22.2466 -22.5747 -21.9339 -21.4174 -22.0956 -21.7022 -21.5964 -21.2157 -21.6891 -21.3565 -21.5602 -22.0883 -22.5048 -21.8772 -21.5985 -21.8652 -21.7154 -22.3453 -22.2149 -22.5819 -22.8619 -22.3916 -21.9279 -22.5798 -22.6074 -21.9272 -22.3508 -22.0002 -21.6911 -21.4764 -20.9968 -20.7577 -19.9477 -20.5407 -20.8216 -20.693 -20.2665 -20.3954 -19.6958 -19.2106 -19.4663 -19.1454 -20.1685 -20.3728 -19.9969 -19.7327 -19.5668 -19.4651 -19.0073 -19.3455 -19.5846 -18.985 -19.0616 -19.2694 -19.33 -19.1976 -19.0194 -18.8853 -18.4141 -18.322 -18.9628 -18.5034 -18.4264 -18.2369 -18.3483 -18.1556 -18.0377 -18.2098 -18.232 -18.1517 -18.119 -18.0178 -17.9437 -17.8849 -17.9813 -17.9421 -17.8275 -17.8633 -17.7777 -17.9843 -17.7256 -17.6605 -17.5927 -17.6313 -17.6313 -17.6313 -17.6313 -17.6313 -17.6313 -17.6313 -17.6313 -17.6313 -17.6313 -17.6313 -17.6313 -17.6313 -17.6313 -17.6313 -17.6313 -17.6313 -17.6313 -17.6313 -17.6313 -17.6313 -17.6313 -17.6313 -17.6313 -17.6313 -17.6313 -17.6313 -17.6313 -17.6313 -17.6313 -17.6313 -17.6313 -17.6313 -17.6313 -17.6313 -17.6313 -17.6313 -17.6313 -17.6313 -17.6313 -17.6313 -17.6313 -17.6313 -17.6313 -17.6313 -17.6313 -17.6313 -17.6313 -17.6313 -17.6313 -17.6313 -17.6313 -17.6313 -17.6313 -17.6313 -17.6313 -17.6313 -17.6313 -17.6313 -17.6313 -17.6313 -17.6313 -17.6313 -17.6313 -17.6313 -17.6313 -17.6313 -17.6313 -17.6313 -17.6313 -17.6313 -17.6313 -17.6313 -17.6313 -17.6313 -17.6313 -17.6313 -17.6313 -17.6313 -17.6313 -17.6313 -17.6313 -17.6313 -17.6313 -17.6313 -17.6313 -17.6313 -17.6313 -17.6313 -17.6313 -17.6313 -17.6313 -17.6313 -17.6313 -17.6313 -17.6313 -17.6313 -17.6313 -17.6313 -17.6313 -17.6313 -17.6313 -17.6313 -17.6313 -17.6313 -17.6313 -17.6313 -17.6313 -17.6313 -17.6313 -17.6313 -17.6313
-23.5099 -23.7462 -23.8099 -24.5012 -24.0013 -24.2517 -23.0726 -22.0212 -21.4614 -22.195 -21.4838 -21.6905 -21.2288 -20.9551 -20.4717 -20.2934 -21.1779 -20.9131 -20.7677 -20.2627 -20.7665 -20.7853 -20.7216 -20.5038 -20.4557 -20.2447 -20.1614 -20.3144 -20.472 -20.2936 -19.9327 -20.129 -20.1711 -20.3705 -20.3456 -20.9981 -20.146 -19.9563 -19.7133 -20.0632 -20.0105 -19.0754 -19.8265 -19.7811 -19.4577 -19.8473 -19.3912 -19.0345 -18.8476 -18.8591 -18.982 -18.9683 -18.8723 -19.264 -19.1622 -19.025 -19.0197 -18.8662 -19.1592 -19.5291 -19.7521 -19.5824 -19.2912 -18.8061 -19.039 -18.61 -18.3238 -18.6418 -18.7715 -18.5384 -18.4775 -18.7382 -18.3872 -17.9772 -18.1726 -18.1536 -18.4815 -18.1708 -18.1347 -18.1336 -18.2101 -18.2676 -18.134 -18.1726 -18.1722 -18.1923 -18.2116 -18.1725 -18.1864 -18.3325 -18.1511 -18.1549 -18.2897 -18.773 -19.2052 -19.2768 -19.3668 -18.9819 -18.9355 -19.6517 -19.4766 -19.8755 -19.8586 -20.4478 -20.2098 -20.473 -20.6306 -20.2673 -20.4372 -20.0031 -20.1213 -20.3136 -20.5093 -20.4028 -20.1415 -18.8673 -18.9901 -18.9297 -18.5932 -18.4965 -18.365 -18.6775 -18.6749 -19.0408 -18.3078 -18.4709 -19.4914 -19.2278 -19.7531 -20.2457 -19.6965 -18.9488 -19.4236 -20.9365 -20.7671 -20.406 -20.7151 -21.226 -21.4124 -21.0775 -20.7596 -20.332 -20.4539 -21.8959 -22.1724 -21.9622 -21.04 -20.9391 -21.2087 -22.0119 -21.4819 -22.0614 -22.1033 -22.0858 -21.7926 -21.8363 -21.5689 -21.8558 -22.4472 -22.7549 -22.6342 -23.3712 -22.8488 -23.0339 -22.3054 -21.5552 -21.762 -21.6708 -21.3706 -21.0805 -21.0236 -20.403 -20.5648 -20.2829 -20.2182 -20.4049 -20.4903 -20.2174 -19.6104 -19.5031 -20.0483 -18.9185 -19.1405 -19.6605 -20.0929 -20.0523 -19.7999 -19.3982 -19.2384 -19.143 -19.2171 -19.1434 -19.125 -18.9677 -18.8916 -19.0856 -19.1136 -18.5632 -18.2687 -18.2517 -18.1137 -18.4391 -18.3853 -18.2499 -18.3088 -18.3778 -17.8649 -17.9674 -18.1146 -18.2114 -17.9619 -17.8061 -17.7858 -17.7837 -17.8424 -17.7686 -17.8572 -17.7472 -17.4077 -17.5379 -17.707 -17.5627 -17.5545 -17.5545 -17.5545 -17.5545 -17.5545 -17.5545 -17.5545 -17.5545 -17.5545 -17.5545 -17.5545 -17.5545 -17.5545 -17.5545 -17.5545 -17.5545 -17.5545 -17.5545 -17.5545 -17.5545 -17.5545 -17.5545 -17.5545 -17.5545 -17.5545 -17.5545 -17.5545 -17.5545 -17.5545 -17.5545 -17.5545 -17.5545 -17.5545 -17.5545 -17.5545 -17.5545 -17.5545 -17.5545 -17.5545 -17.5545 -17.5545 -17.5545 -17.5545 -17.5545 -17.5545 -17.5545 -17.5545 -17.5545 -17.5545 -17.5545 -17.5545 -17.5545 -17.5545 -17.5545 -17.5545 -17.5545 -17.5545 -17.5545 -17.5545 -17.5545 -17.5545 -17.5545 -17.5545 -17.5545 -17.5545 -17.5545 -17.5545 -17.5545 -17.5545 -17.5545 -17.5545 -17.5545 -17.5545 -17.5545 -17.5545 -17.5545 -17.5545 -17.5545 -17.5545 -17.5545 -17.5545 -17.5545 -17.5545 -17.5545 -17.5545 -17.5545 -17.5545 -17.5545 -17.5545 -17.5545 -17.5545 -17.5545 -17.5545 -17.5545 -17.5545 -17.5545 -17.5545 -17.5545 -17.5545 -17.5545 -17.5545 -17.5545 -17.5545 -17.5545 -17.5545 -17.5545 -17.5545 -17.5545 -17.5545 -17.5545 -17.5545 -17.5545 -17.5545 -17.5545
-22.7472 -22.6007 -23.7041 -24.931 -24.053 -23.5243 -23.803 -22.2368 -21.0817 -21.6301 -21.0575 -20.62 -20.4235 -20.3479 -20.288 -19.9685 -20.4085 -20.2531 -20.4577 -20.2264 -20.2104 -20.3421 -20.6226 -20.6969 -20.7142 -20.8047 -20.187 -19.8735 -19.9918 -20.0087 -20.208 -19.8936 -19.8659 -20.1988 -19.7457 -20.5429 -20.1012 -19.6411 -19.5924 -20.2583 -20.0893 -19.4083 -18.9094 -19.1245 -19.3553 -18.7869 -19.1076 -19.3145 -18.8411 -18.8582 -18.7777 -18.8053 -18.5578 -19.1308 -19.174 -18.9086 -18.7562 -18.7362 -19.1355 -19.2509 -19.3124 -18.883 -19.2159 -19.4841 -19.1718 -18.4817 -18.8707 -18.7897 -18.1869 -18.7539 -18.7117 -18.3748 -18.3548 -18.0176 -18.0397 -18.3233 -18.0793 -18.0961 -18.0413 -18.0777 -18.076 -18.1392 -18.04 -18.059 -18.1087 -18.0991 -18.079 -18.0407 -18.1789 -18.135 -18.2311 -18.1796 -18.1356 -19.104 -19.4455 -19.0882 -19.1038 -18.8024 -18.9934 -19.2075 -19.5154 -19.9551 -19.8588 -20.1142 -19.6885 -20.0034 -19.8287 -20.05 -20.141 -20.1401 -20.4732 -20.1779 -20.3031 -19.7142 -19.299 -19.1522 -18.7944 -18.5044 -18.5707 -18.5168 -18.3079 -18.2531 -18.346 -18.314 -18.1334 -18.8981 -19.1816 -19.2458 -19.462 -19.5345 -19.4508 -19.7104 -20.092 -19.8129 -20.4149 -19.8863 -19.7693 -21.3544 -21.0664 -20.7322 -20.1931 -20.4749 -20.9648 -20.8344 -21.5305 -20.9055 -21.0242 -20.402 -20.9238 -21.4672 -21.5699 -21.6439 -22.5033 -21.855 -21.4351 -21.1983 -21.0124 -21.6623 -22.0633 -22.759 -22.4501 -22.5213 -21.9996 -22.0438 -21.1645 -20.5674 -20.5792 -20.4432 -20.8165 -21.118 -20.2663 -20.218 -20.4951 -19.8074 -19.3575 -19.5317 -20.4913 -19.5302 -19.6396 -19.5009 -19.8696 -19.4403 -18.7364 -19.6257 -19.704 -19.6027 -19.6565 -19.3109 -19.3496 -19.0579 -18.812 -18.656 -18.5178 -18.443 -18.5041 -18.9998 -18.9489 -18.9693 -18.4614 -18.3289 -17.9808 -17.9998 -18.3906 -18.1621 -18.2515 -17.9261 -18.0791 -17.7504 -18.0012 -17.7916 -17.7181 -17.6157 -17.7705 -17.7674 -17.6583 -17.6561 -17.4464 -17.5988 -17.4224 -17.6344 -17.4607 -17.4794 -17.4794 -17.4794 -17.4794 -17.4794 -17.4794 -17.4794 -17.4794 -17.4794 -17.4794 -17.4794 -17.4794 -17.4794 -17.4794 -17.4794 -17.4794 -17.4794 -17.4794 -17.4794 -17.4794 -17.4794 -17.4794 -17.4794 -17.4794 -17.4794 -17.4794 -17.4794 -17.4794 -17.4794 -17.4794 -17.4794 -17.4794 -17.4794 -17.4794 -17.4794 -17.4794 -17.4794 -17.4794 -17.4794 -17.4794 -17.4794 -17.4794 -17.4794 -17.4794 -17.4794 -17.4794 -17.4794 -17.4794 -17.4794 -17.4794 -17.4794 -17.4794 -17.4794 -17.4794 -17.4794 -17.4794 -17.4794 -17.4794 -17.4794 -17.4794 -17.4794 -17.4794 -17.4794 -17.4794 -17.4794 -17.4794 -17.4794 -17.4794 -17.4794 -17.4794 -17.4794 -17.4794 -17.4794 -17.4794 -17.4794 -17.4794 -17.4794 -17.4794 -17.4794 -17.4794 -17.4794 -17.4794 -17.4794 -17.4794 -17.4794 -17.4794 -17.4794 -17.4794 -17.4794 -17.4794 -17.4794 -17.4794 -17.4794 -17.4794 -17.4794 -17.4794 -17.4794 -17.4794 -17.4794 -17.4794 -17.4794 -17.4794 -17.4794 -17.4794 -17.4794 -17.4794 -17.4794 -17.4794 -17.4794 -17.4794 -17.4794 -17.4794 -17.4794 -17.4794 -17.4794
-23.6208 -22.0481 -22.4925 -23.374 -23.543 -23.2444 -22.5422 -22.5525 -21.6349 -20.8985 -20.905 -20.788 -21.2247 -20.8189 -20.1618 -21.1673 -20.8357 -19.9226 -20.2961 -19.8939 -20.0246 -20.0269 -20.3131 -20.5003 -20.621 -20.4063 -20.4406 -20.0275 -19.9658 -19.6862 -19.6147 -19.8306 -19.8748 -19.7227 -20.3563 -19.754 -20.406 -19.6734 -19.8821 -19.5811 -19.2645 -19.4963 -19.6122 -19.4335 -18.7991 -19.0706 -18.8673 -18.6002 -18.7121 -18.6251 -18.6088 -18.441 -18.4564 -18.7686 -19.1157 -18.7726 -18.54 -18.6938 -19.0088 -19.8234 -19.8511 -19.6081 -18.9147 -19.1715 -18.6818 -18.6762 -18.6407 -18.1036 -18.5946 -18.5391 -17.9227 -18.3753 -18.1292 -17.9538 -17.9913 -18.4086 -17.9356 -18.0329 -17.975 -17.9757 -18.0315 -17.9366 -17.9382 -17.958 -18.01 -17.9568 -18.0346 -17.937 -18.1104 -18.0887 -17.9738 -18.0129 -18.6706 -19.3905 -18.7727 -18.7927 -18.7082 -18.6809 -19.0314 -19.0646 -19.4217 -19.7717 -19.7849 -19.4485 -19.5092 -20.1228 -20.0385 -20.2307 -19.9057 -20.2993 -20.7086 -20.594 -20.4134 -19.6781 -19.4953 -19.6913 -18.9829 -18.6564 -18.7538 -18.6763 -18.1283 -18.1551 -18.2599 -18.2155 -18.129 -18.3647 -18.9195 -19.1121 -19.5391 -19.7899 -19.0106 -19.1294 -19.8991 -19.6435 -20.1076 -19.3926 -20.2316 -20.5905 -20.8981 -21.035 -20.3118 -20.3627 -19.7682 -20.5942 -21.3139 -20.6659 -20.8192 -20.5877 -21.0151 -21.0876 -21.7237 -21.5003 -21.9 -22.121 -21.5277 -21.6381 -20.7923 -22.0092 -21.1257 -21.3217 -21.1796 -21.5267 -21.3871 -20.9319 -21.2949 -20.2589 -20.2306 -19.7785 -20.4864 -20.4492 -21.09 -20.2396 -19.8426 -19.6871 -19.5249 -19.2723 -19.997 -20.192 -19.7206 -19.8714 -19.2195 -19.1236 -18.6079 -19.1823 -19.428 -19.3124 -19.618 -19.2122 -19.0824 -19.634 -19.4421 -19.1216 -19.1004 -18.6579 -18.4235 -18.4425 -18.7604 -18.8723 -18.7667 -18.3141 -18.0008 -17.8822 -18.0541 -18.149 -18.0575 -18.0137 -17.7651 -17.6979 -17.6145 -17.5716 -17.5902 -17.6467 -17.5735 -17.6619 -17.6139 -17.4421 -17.4769 -17.5713 -17.5634 -17.3967 -17.3967 -17.3967 -17.3967 -17.3967 -17.3967 -17.3967 -17.3967 -17.3967 -17.3967 -17.3967 -17.3967 -17.3967 -17.3967 -17.3967 -17.3967 -17.3967 -17.3967 -17.3967 -17.3967 -17.3967 -17.3967 -17.3967 -17.3967 -17.3967 -17.3967 -17.3967 -17.3967 -17.3967 -17.3967 -17.3967 -17.3967 -17.3967 -17.3967 -17.3967 -17.3967 -17.3967 -17.3967 -17.3967 -17.3967 -17.3967 -17.3967 -17.3967 -17.3967 -17.3967 -17.3967 -17.3967 -17.3967 -17.3967 -17.3967 -17.3967 -17.3967 -17.3967 -17.3967 -17.3967 -17.3967 -17.3967 -17.3967 -17.3967 -17.3967 -17.3967 -17.3967 -17.3967 -17.3967 -17.3967 -17.3967 -17.3967 -17.3967 -17.3967 -17.3967 -17.3967 -17.3967 -17.3967 -17.3967 -17.3967 -17.3967 -17.3967 -17.3967 -17.3967 -17.3967 -17.3967 -17.3967 -17.3967 -17.3967 -17.3967 -17.3967 -17.3967 -17.3967 -17.3967 -17.3967 -17.3967 -17.3967 -17.3967 -17.3967 -17.3967 -17.3967 -17.3967 -17.3967 -17.3967 -17.3967 -17.3967 -17.3967 -17.3967 -17.3967 -17.3967 -17.3967 -17.3967 -17.3967 -17.3967 -17.3967 -17.3967 -17.3967 -17.3967 -17.3967 -17.3967 -17.3967 -17.3967
