ncols 378
nrows 32
xllcorner -102.949996949
yllcorner 32.1333325767
cellsize 0.0833333333
NODATA_value -9999
4.22195 4.2068 4.19179 4.17698 4.16245 4.14827 4.13451 4.12123 4.10849 4.09635 4.08485 4.07402 4.0639 4.05447 4.04575 4.03769 4.03028 4.02344 4.01711 4.01119 4.00559 4.00018 3.99484 3.98942 3.98378 3.97776 3.9712 3.96394 3.95582 3.94666 3.93631 3.92462 3.91141 3.89654 3.87987 3.86124 3.84053 3.81759 3.79231 3.76456 3.73423 3.70121 3.66539 3.62667 3.58496 3.54018 3.49226 3.44113 3.38674 3.32907 3.26811 3.2039 3.13652 3.0661 2.99289 2.91722 2.83962 2.76081 2.68184 2.60416 2.52982 2.46157 2.40313 2.35916 2.33483 2.3342 2.35804 2.40333 2.4651 2.53845 2.6193 2.70453 2.79183 2.8795 2.96633 3.05144 3.13423 3.21427 3.29129 3.36512 3.43565 3.50286 3.56675 3.62737 3.68477 3.73903 3.79025 3.83852 3.88394 3.92661 3.96665 4.00416 4.03924 4.07198 4.10248 4.13084 4.15714 4.18147 4.2039 4.2245 4.24335 4.2605 4.27602 4.28996 4.30236 4.31328 4.32274 4.33078 4.33744 4.34273 4.34668 4.3493 4.3506 4.35059 4.34927 4.34664 4.34269 4.33741 4.3308 4.32282 4.31346 4.3027 4.2905 4.27684 4.26167 4.24497 4.2267 4.2068 4.18526 4.16201 4.13702 4.11026 4.08168 4.05125 4.01895 3.98476 3.94867 3.91069 3.87083 3.82916 3.78573 3.74065 3.69407 3.64616 3.59718 3.54741 3.49724 3.44711 3.39755 3.34919 3.30272 3.25892 3.21862 3.18264 3.15181 3.12685 3.10832 3.09658 3.09173 3.0936 3.10177 3.11558 3.13422 3.15682 3.18244 3.2102 3.23928 3.26894 3.29858 3.32769 3.35585 3.38278 3.40827 3.43218 3.45446 3.47509 3.49413 3.51164 3.52773 3.54252 3.55613 3.56869 3.58031 3.59109 3.60113 3.61048 3.61917 3.62722 3.63461 3.64129 3.6472 3.65225 3.65635 3.65937 3.6612 3.66171 3.66079 3.65832 3.6542 3.64833 3.64065 3.6311 3.61967 3.60634 3.59116 3.57418 3.55551 3.53527 3.51364 3.49083 3.4671 3.44274 3.41809 3.39351 3.3694 3.3462 3.32433 3.30427 3.28643 3.27124 3.25907 3.25024 3.24501 3.24352 3.24587 3.25202 3.26185 3.27516 3.29165 3.31098 3.33274 3.35648 3.38177 3.40812 3.43511 3.46228 3.48924 3.5156 3.54103 3.56521 3.58789 3.60881 3.6278 3.64468 3.65932 3.67161 3.68148 3.68888 3.69378 3.69619 3.69613 3.69365 3.68881 3.6817 3.67244 3.66116 3.64801 3.63317 3.61682 3.59916 3.58042 3.56082 3.54059 3.51995 3.4991 3.47823 3.4575 3.43701 3.41684 3.39698 3.37738 3.35792 3.3384 3.3186 3.29821 3.2769 3.2543 3.23002 3.20368 3.17489 3.14332 3.10864 3.0706 3.02902 2.98381 2.93503 2.88285 2.82769 2.77018 2.7113 2.65248 2.59564 2.54338 2.499 2.46633 2.44922 2.45026 2.46959 2.50474 2.55176 2.60652 2.66538 2.72545 2.78451 2.8409 2.89338 2.94106 2.9833 3.01966 3.04983 3.07364 3.09102 3.10197 3.10659 3.10503 3.09755 3.08449 3.06629 3.04352 3.01689 2.98729 2.95579 2.92371 2.89256 2.86409 2.84019 2.82278 2.81364 2.81419 2.82526 2.84699 2.87886 2.91977 2.96831 3.0229 3.08204 3.14431 3.2085 3.27357 3.33871 3.40323 3.46663 3.52849 3.58853 3.64652 3.70234 3.75587 3.80708 3.85595 3.90248 3.94672 3.9887 4.02848 4.06614 4.10175 4.13538 4.16711 4.19703 4.22522 4.25176 4.27672 4.3002 4.32226 4.34298 4.36243 4.38067 4.39779 4.41384 4.42887 4.44296 4.45615 4.46849 4.48004 4.49085 4.50096 4.51041 4.51924 4.52749
4.24958 4.23567 4.22188 4.20828 4.19492 4.18186 4.16915 4.15685 4.14501 4.13367 4.12286 4.1126 4.10291 4.09379 4.08522 4.07719 4.06964 4.06254 4.05579 4.04933 4.04306 4.03687 4.03064 4.02424 4.01754 4.0104 4.00266 3.99419 3.98482 3.9744 3.96279 3.94982 3.93536 3.91926 3.90137 3.88156 3.8597 3.83566 3.80931 3.78053 3.74922 3.71526 3.67856 3.63902 3.59656 3.55111 3.5026 3.45099 3.39626 3.33842 3.27749 3.21355 3.14675 3.0773 3.00552 2.93184 2.8569 2.78155 2.70696 2.63469 2.56678 2.50587 2.45518 2.41835 2.39886 2.39914 2.41961 2.45852 2.51266 2.57836 2.65222 2.73134 2.81345 2.89679 2.98003 3.0622 3.14259 3.22068 3.29612 3.36866 3.43817 3.50456 3.5678 3.62789 3.68488 3.73883 3.78979 3.83787 3.88315 3.92572 3.96568 4.00313 4.03816 4.07088 4.10136 4.12971 4.156 4.18032 4.20273 4.22333 4.24216 4.25929 4.27478 4.28868 4.30104 4.31189 4.32129 4.32926 4.33582 4.34101 4.34484 4.34733 4.34847 4.34829 4.34678 4.34393 4.33975 4.33421 4.32729 4.31899 4.30927 4.2981 4.28546 4.27131 4.25561 4.23831 4.21938 4.19876 4.17641 4.15227 4.12631 4.09846 4.06868 4.03693 4.00316 3.96735 3.92947 3.88951 3.84747 3.80339 3.75732 3.70933 3.65955 3.60815 3.55537 3.50149 3.4469 3.39206 3.33754 3.28403 3.23233 3.18333 3.13803 3.09747 3.0627 3.03465 3.0141 3.00153 2.99711 3.00061 3.01147 3.02883 3.05163 3.07873 3.10899 3.14131 3.17474 3.20844 3.24172 3.27403 3.30496 3.33422 3.36162 3.38707 3.41053 3.43206 3.45174 3.4697 3.48609 3.50108 3.51486 3.52758 3.53941 3.55049 3.56092 3.5708 3.58018 3.58908 3.59747 3.60532 3.61254 3.61904 3.62469 3.62938 3.63295 3.63527 3.63619 3.63558 3.63333 3.62934 3.62351 3.6158 3.60617 3.59462 3.58119 3.56593 3.54894 3.53037 3.51039 3.48921 3.46711 3.44436 3.42132 3.39833 3.37581 3.35416 3.33381 3.3152 3.29874 3.28482 3.27379 3.26594 3.26151 3.26063 3.26336 3.26968 3.27946 3.2925 3.30853 3.32722 3.34817 3.37098 3.39522 3.42043 3.4462 3.47209 3.49772 3.52272 3.54675 3.56951 3.59073 3.61016 3.62762 3.64292 3.65592 3.66653 3.67464 3.68022 3.68321 3.68363 3.68148 3.67681 3.66969 3.6602 3.64847 3.63463 3.61885 3.60132 3.58225 3.56189 3.54047 3.51828 3.49559 3.47268 3.44981 3.42722 3.40515 3.38374 3.36312 3.34332 3.32432 3.30599 3.28817 3.27058 3.2529 3.23477 3.21578 3.19551 3.17354 3.14947 3.12293 3.09361 3.06125 3.0257 2.98692 2.94497 2.90014 2.85286 2.80385 2.75415 2.70515 2.65866 2.61698 2.58275 2.55878 2.54758 2.55065 2.56803 2.5982 2.63858 2.68618 2.73811 2.79188 2.84543 2.89714 2.94576 2.99037 3.03028 3.06498 3.09415 3.11758 3.13517 3.14692 3.1529 3.1533 3.14835 3.13842 3.12393 3.10548 3.08374 3.05957 3.03396 3.0081 2.98332 2.96106 2.94286 2.93023 2.92451 2.92676 2.93763 2.95728 2.98538 3.02122 3.06377 3.11187 3.16432 3.21997 3.27778 3.33682 3.39632 3.45564 3.51426 3.57176 3.62784 3.68225 3.73481 3.7854 3.83395 3.88041 3.92477 3.96704 4.00725 4.04542 4.08162 4.1159 4.14833 4.17898 4.20791 4.2352 4.26091 4.28513 4.30793 4.32937 4.34952 4.36845 4.38623 4.40291 4.41856 4.43323 4.44699 4.45987 4.47194 4.48323 4.49381 4.5037 4.51294 4.52159 4.52967
4.27554 4.26275 4.25006 4.23754 4.22521 4.21314 4.20137 4.18994 4.17888 4.16824 4.15802 4.14826 4.13894 4.13008 4.12165 4.11362 4.10595 4.09859 4.09148 4.08453 4.07766 4.07077 4.06375 4.05647 4.04882 4.04066 4.03186 4.02229 4.01178 4.00022 3.98744 3.97331 3.95769 3.94045 3.92143 3.90052 3.87758 3.85248 3.82512 3.79536 3.76311 3.72827 3.69073 3.65041 3.60725 3.56117 3.51214 3.46013 3.40515 3.34723 3.28646 3.22296 3.15694 3.08869 3.0186 2.94722 2.87528 2.80372 2.73378 2.66703 2.60545 2.55136 2.50744 2.47643 2.46073 2.46189 2.48015 2.51438 2.56237 2.62142 2.68877 2.76193 2.83877 2.91756 2.99695 3.07589 3.15358 3.22944 3.30305 3.37408 3.44236 3.50774 3.57015 3.62958 3.68603 3.73953 3.79014 3.83794 3.88298 3.92537 3.96519 4.00252 4.03746 4.0701 4.10053 4.12882 4.15507 4.17935 4.20173 4.22229 4.24108 4.25818 4.27363 4.28748 4.29978 4.31058 4.31991 4.3278 4.33427 4.33936 4.34307 4.34543 4.34643 4.34609 4.34439 4.34135 4.33693 4.33114 4.32395 4.31534 4.30529 4.29375 4.28069 4.26609 4.24988 4.23202 4.21247 4.19117 4.16806 4.14309 4.1162 4.08732 4.0564 4.02339 3.98822 3.95086 3.91125 3.86938 3.82522 3.77878 3.73009 3.67921 3.62623 3.57131 3.51464 3.45651 3.39729 3.33745 3.27758 3.21842 3.16086 3.10593 3.05481 3.00881 2.96923 2.93735 2.91421 2.90052 2.89652 2.90193 2.91597 2.9375 2.96513 2.99739 3.03284 3.07019 3.1083 3.14623 3.18324 3.21876 3.25238 3.28382 3.31294 3.33968 3.36408 3.38622 3.40625 3.42437 3.44079 3.45573 3.46943 3.48211 3.49398 3.50521 3.51596 3.52633 3.53639 3.54617 3.55565 3.56476 3.57343 3.58153 3.58891 3.59543 3.60091 3.60518 3.60808 3.60947 3.60919 3.60713 3.6032 3.59732 3.58946 3.57962 3.56781 3.55411 3.53861 3.52147 3.50285 3.48298 3.46213 3.4406 3.41872 3.39687 3.37545 3.35487 3.33557 3.31796 3.30245 3.28944 3.27924 3.27216 3.26839 3.26807 3.27125 3.2779 3.28787 3.30098 3.31695 3.33545 3.3561 3.37849 3.4022 3.42681 3.45187 3.47698 3.50176 3.52583 3.54887 3.57056 3.59064 3.60888 3.62505 3.63899 3.65055 3.65962 3.6661 3.66993 3.67108 3.66952 3.66528 3.65839 3.64891 3.63694 3.6226 3.60604 3.58743 3.56698 3.54494 3.52157 3.49717 3.47206 3.44657 3.42105 3.39584 3.37126 3.34761 3.32512 3.30397 3.28425 3.26597 3.24901 3.2332 3.21825 3.2038 3.18944 3.17472 3.15917 3.14232 3.12373 3.10302 3.07987 3.05401 3.02532 2.99377 2.95948 2.92275 2.88407 2.84416 2.80403 2.76498 2.72862 2.69683 2.67167 2.65516 2.64895 2.65399 2.67027 2.6968 2.73183 2.77323 2.81878 2.86643 2.91439 2.96119 3.00563 3.04679 3.08398 3.11666 3.14447 3.1672 3.18471 3.19699 3.20411 3.20622 3.20358 3.19652 3.18548 3.171 3.15375 3.1345 3.11417 3.09379 3.07449 3.05749 3.04402 3.03527 3.03229 3.03589 3.04659 3.06454 3.08956 3.12116 3.15862 3.20107 3.24757 3.29719 3.34906 3.40238 3.45645 3.51067 3.56455 3.61768 3.66974 3.72046 3.76966 3.81719 3.86295 3.90688 3.94893 3.98911 4.0274 4.06385 4.09848 4.13133 4.16246 4.19192 4.21977 4.24608 4.2709 4.29431 4.31636 4.33712 4.35665 4.37501 4.39227 4.40848 4.42369 4.43797 4.45136 4.4639 4.47566 4.48668 4.49699 4.50664 4.51567 4.52412 4.53202
4.29989 4.2881 4.2764 4.26484 4.25344 4.24224 4.2313 4.22063 4.21026 4.20023 4.19053 4.18119 4.1722 4.16356 4.15523 4.1472 4.13942 4.13183 4.12438 4.117 4.10959 4.10207 4.09433 4.08626 4.07776 4.06869 4.05893 4.04835 4.03682 4.0242 4.01036 3.99517 3.97848 3.96017 3.9401 3.91815 3.89419 3.86811 3.83978 3.80909 3.77595 3.74024 3.70189 3.66082 3.61697 3.57028 3.52074 3.46834 3.41312 3.35515 3.29454 3.23149 3.16625 3.09919 3.03079 2.96166 2.89261 2.82466 2.75907 2.69736 2.64136 2.59309 2.55473 2.52837 2.5157 2.51778 2.53471 2.56568 2.60908 2.66285 2.72479 2.79275 2.86482 2.93938 3.01508 3.09086 3.16587 3.23947 3.31118 3.38065 3.44761 3.5119 3.57341 3.63209 3.68792 3.74091 3.7911 3.83855 3.88331 3.92546 3.96508 4.00225 4.03706 4.06959 4.09993 4.12814 4.15432 4.17854 4.20087 4.22138 4.24012 4.25716 4.27256 4.28636 4.2986 4.30934 4.31859 4.3264 4.33279 4.33778 4.34138 4.34361 4.34448 4.34399 4.34212 4.33889 4.33427 4.32825 4.32081 4.31192 4.30155 4.28967 4.27624 4.26121 4.24454 4.22617 4.20606 4.18413 4.16033 4.13458 4.10684 4.07701 4.04504 4.01086 3.97439 3.93557 3.89435 3.85067 3.8045 3.75582 3.70462 3.65094 3.59485 3.53646 3.47594 3.41354 3.34961 3.2846 3.21912 3.15391 3.08995 3.02839 2.97062 2.91821 2.87285 2.83623 2.8098 2.79461 2.79104 2.79872 2.81659 2.84307 2.87631 2.91441 2.95561 2.99837 3.04139 3.08366 3.12437 3.16298 3.19907 3.23244 3.26297 3.29066 3.31562 3.33799 3.35801 3.37591 3.392 3.40655 3.41988 3.43225 3.44394 3.45516 3.4661 3.4769 3.48764 3.49834 3.50898 3.5195 3.52976 3.53963 3.54894 3.55747 3.56505 3.57146 3.57651 3.58001 3.58181 3.58177 3.57977 3.57573 3.56961 3.56139 3.55109 3.53878 3.52456 3.50858 3.49102 3.47212 3.45214 3.4314 3.41025 3.38907 3.36827 3.34828 3.32954 3.31248 3.29752 3.28505 3.27541 3.26887 3.26565 3.26587 3.26957 3.2767 3.28713 3.30063 3.31694 3.3357 3.35654 3.37903 3.40274 3.42726 3.45213 3.47696 3.50135 3.52494 3.54739 3.56839 3.58768 3.60501 3.62017 3.63299 3.6433 3.651 3.65599 3.65818 3.65755 3.65407 3.64774 3.63861 3.62673 3.6122 3.59513 3.57568 3.55405 3.53045 3.50515 3.47847 3.45073 3.42232 3.39365 3.36513 3.3372 3.31028 3.28475 3.26096 3.23915 3.21949 3.20202 3.18666 3.1732 3.16134 3.15066 3.14069 3.13091 3.12077 3.10976 3.0974 3.08325 3.06696 3.0483 3.02711 3.00339 2.97728 2.94909 2.91932 2.88865 2.85803 2.82859 2.80171 2.77889 2.76171 2.75161 2.74974 2.75671 2.7725 2.79645 2.82734 2.86363 2.90366 2.94577 2.9885 3.03053 3.0708 3.10843 3.14274 3.17321 3.19946 3.22126 3.23847 3.25105 3.25906 3.26264 3.26203 3.25754 3.24959 3.23869 3.22544 3.21055 3.19483 3.17917 3.16453 3.15193 3.14236 3.13676 3.13597 3.14063 3.15115 3.1677 3.19017 3.21823 3.25137 3.28893 3.3302 3.37442 3.42088 3.46889 3.51784 3.5672 3.61649 3.66534 3.71342 3.76046 3.80627 3.85069 3.8936 3.93491 3.97458 4.01258 4.04889 4.08352 4.11649 4.14784 4.17759 4.20579 4.2325 4.25776 4.28162 4.30415 4.32541 4.34544 4.3643 4.38205 4.39875 4.41445 4.42919 4.44304 4.45603 4.46822 4.47965 4.49036 4.50039 4.50978 4.51858 4.52681 4.53451
4.32268 4.3118 4.30098 4.29027 4.27969 4.26928 4.25906 4.24906 4.23931 4.2298 4.22057 4.21159 4.20288 4.19442 4.18618 4.17814 4.17025 4.16245 4.1547 4.14692 4.13903 4.13094 4.12256 4.11379 4.10451 4.09462 4.08399 4.07251 4.06004 4.04647 4.03165 4.01547 3.9978 3.9785 3.95745 3.93453 3.90962 3.88259 3.85334 3.82176 3.78775 3.75121 3.71206 3.67024 3.62569 3.57838 3.52829 3.47546 3.41993 3.36181 3.30126 3.23852 3.1739 3.10781 3.04081 2.97359 2.907 2.8421 2.78015 2.72262 2.67116 2.62756 2.59359 2.57088 2.5607 2.56375 2.58007 2.60899 2.64925 2.69921 2.75703 2.82089 2.88907 2.96007 3.03259 3.10558 3.17818 3.24971 3.31966 3.38762 3.45332 3.51654 3.57715 3.63508 3.69027 3.74273 3.79247 3.83954 3.88398 3.92587 3.96526 4.00224 4.03689 4.06929 4.09951 4.12762 4.15372 4.17786 4.20012 4.22056 4.23924 4.25623 4.27156 4.2853 4.29749 4.30815 4.31734 4.32507 4.33137 4.33627 4.33977 4.34189 4.34263 4.342 4.33998 4.33658 4.33178 4.32555 4.31788 4.30874 4.2981 4.28591 4.27214 4.25674 4.23965 4.22083 4.20021 4.17772 4.1533 4.12687 4.09836 4.06769 4.03477 3.99953 3.96189 3.92176 3.87907 3.83375 3.78573 3.73499 3.68148 3.6252 3.56618 3.50451 3.4403 3.37377 3.30523 3.23507 3.16389 3.09244 3.02171 2.95296 2.88775 2.82795 2.7757 2.73324 2.70264 2.68548 2.68237 2.69283 2.71534 2.74768 2.78738 2.83201 2.87942 2.92784 2.97584 3.02233 3.06654 3.10792 3.14613 3.181 3.21249 3.24067 3.26571 3.28784 3.30736 3.32459 3.3399 3.35365 3.36623 3.37797 3.3892 3.4002 3.41119 3.42234 3.43374 3.44542 3.45733 3.46939 3.48144 3.4933 3.50474 3.51553 3.52542 3.53417 3.54154 3.54732 3.55133 3.55339 3.55337 3.55117 3.54675 3.54006 3.53115 3.52006 3.5069 3.49182 3.47501 3.45672 3.43722 3.41685 3.39597 3.37497 3.3543 3.3344 3.31574 3.29877 3.28394 3.27166 3.26227 3.25607 3.25328 3.25402 3.25833 3.26613 3.27727 3.29152 3.30857 3.32806 3.34957 3.37268 3.39693 3.42188 3.44708 3.47212 3.4966 3.52014 3.54242 3.56311 3.58194 3.59868 3.61311 3.62505 3.63434 3.64085 3.64449 3.64517 3.64286 3.63751 3.62914 3.61778 3.60347 3.5863 3.5664 3.54393 3.51908 3.4921 3.46327 3.43294 3.4015 3.36939 3.33708 3.30511 3.274 3.2443 3.21652 3.19112 3.16847 3.1488 3.13222 3.11867 3.10793 3.09963 3.0933 3.08837 3.08422 3.08021 3.07576 3.07029 3.06335 3.05454 3.0436 3.03039 3.01489 2.99725 2.97777 2.95691 2.93532 2.91383 2.89342 2.87523 2.86044 2.85026 2.84574 2.8477 2.85657 2.87233 2.89452 2.92228 2.9545 2.98992 3.02726 3.06531 3.10297 3.13931 3.17353 3.20499 3.23321 3.25782 3.27856 3.29531 3.308 3.31668 3.32148 3.32261 3.32037 3.31514 3.30737 3.29762 3.28651 3.27474 3.26309 3.25237 3.24342 3.23703 3.23399 3.23495 3.24043 3.25078 3.26614 3.28647 3.31156 3.34102 3.37438 3.41107 3.4505 3.49209 3.53525 3.57947 3.62426 3.6692 3.71393 3.75815 3.80159 3.84406 3.88538 3.92543 3.96411 4.00137 4.03714 4.07142 4.10418 4.13545 4.16522 4.19354 4.22044 4.24594 4.27011 4.29297 4.31458 4.33499 4.35425 4.37241 4.38951 4.40562 4.42077 4.43502 4.44841 4.46098 4.47278 4.48386 4.49424 4.50398 4.5131 4.52164 4.52964 4.53713
4.34397 4.3339 4.32388 4.31393 4.30408 4.29436 4.28479 4.27539 4.26616 4.25713 4.24829 4.23964 4.23117 4.22286 4.21469 4.20663 4.19864 4.19065 4.18262 4.17449 4.16616 4.15756 4.14861 4.1392 4.12923 4.11859 4.10718 4.09488 4.08156 4.06711 4.05141 4.03432 4.01574 3.99552 3.97356 3.94973 3.92392 3.896 3.86587 3.83342 3.79856 3.76119 3.72125 3.67866 3.63338 3.58539 3.53469 3.48132 3.42536 3.36694 3.30624 3.24355 3.17921 3.11371 3.04763 2.98173 2.9169 2.85423 2.79498 2.74055 2.69249 2.65237 2.62171 2.60184 2.59373 2.59786 2.61419 2.64212 2.68056 2.72811 2.7832 2.8442 2.90957 2.97791 3.04798 3.11877 3.18942 3.25924 3.32769 3.39436 3.45894 3.52121 3.581 3.63821 3.6928 3.74474 3.79405 3.84073 3.88485 3.92646 3.96562 4.0024 4.03688 4.06912 4.09921 4.12721 4.15321 4.17726 4.19944 4.21981 4.23843 4.25535 4.27062 4.2843 4.29642 4.30702 4.31614 4.32379 4.33002 4.33483 4.33824 4.34026 4.34089 4.34013 4.33798 4.33443 4.32946 4.32305 4.31519 4.30583 4.29494 4.28249 4.26843 4.2527 4.23526 4.21604 4.19499 4.17202 4.14706 4.12004 4.09087 4.05947 4.02574 3.98959 3.95093 3.90966 3.86569 3.81894 3.76932 3.71676 3.6612 3.60261 3.54098 3.47634 3.40878 3.33845 3.26559 3.19057 3.1139 3.03629 2.95873 2.88249 2.80928 2.74123 2.68094 2.63137 2.59549 2.57571 2.57312 2.58706 2.61523 2.65448 2.70145 2.75312 2.80696 2.86099 2.91374 2.9641 3.01134 3.05498 3.09474 3.13053 3.16238 3.19045 3.21496 3.23625 3.25469 3.27068 3.28468 3.29714 3.30851 3.31922 3.32967 3.3402 3.35107 3.36248 3.37453 3.38725 3.40057 3.41435 3.42842 3.44251 3.45635 3.46966 3.48212 3.49344 3.50335 3.51159 3.51793 3.52218 3.5242 3.52386 3.52109 3.51587 3.5082 3.49815 3.48583 3.47138 3.45501 3.43696 3.41754 3.39709 3.376 3.35469 3.33363 3.31331 3.29423 3.27688 3.26175 3.24928 3.23985 3.23379 3.23133 3.23258 3.23758 3.24625 3.25839 3.27375 3.29198 3.31266 3.33537 3.35962 3.38495 3.41086 3.43691 3.46266 3.4877 3.51164 3.53415 3.5549 3.57364 3.5901 3.60408 3.61539 3.62387 3.62939 3.63185 3.63117 3.62729 3.62017 3.60982 3.59625 3.5795 3.55967 3.53687 3.51125 3.48303 3.45245 3.41982 3.38552 3.34999 3.31372 3.2773 3.24134 3.20651 3.1735 3.14299 3.11559 3.09181 3.07202 3.05639 3.04488 3.03724 3.03305 3.0317 3.0325 3.0347 3.03755 3.04033 3.0424 3.04323 3.0424 3.03959 3.03466 3.02759 3.01849 3.00766 2.99552 2.98265 2.96976 2.95769 2.94737 2.93974 2.93573 2.93612 2.94153 2.95226 2.96832 2.98937 3.01483 3.04387 3.07556 3.10889 3.14291 3.17671 3.20949 3.24055 3.26933 3.29537 3.31833 3.33797 3.35415 3.36681 3.37597 3.38177 3.38437 3.38405 3.38115 3.37608 3.36933 3.36144 3.35303 3.34475 3.33729 3.33133 3.32755 3.32657 3.32892 3.33503 3.34518 3.35952 3.37805 3.40061 3.42694 3.45667 3.48938 3.52459 3.56182 3.6006 3.64049 3.68105 3.72192 3.76276 3.80329 3.84327 3.88249 3.92078 3.95802 3.99409 4.02893 4.06248 4.09471 4.12559 4.15511 4.1833 4.21015 4.2357 4.25998 4.283 4.30483 4.32549 4.34502 4.36348 4.3809 4.39733 4.41282 4.4274 4.44113 4.45404 4.46617 4.47757 4.48828 4.49832 4.50774 4.51657 4.52485 4.53261 4.53987
4.36384 4.3545 4.34518 4.33592 4.32672 4.31762 4.30862 4.29974 4.29098 4.28236 4.27386 4.26549 4.25723 4.24906 4.24095 4.23286 4.22477 4.21661 4.20833 4.19987 4.19116 4.1821 4.17263 4.16265 4.15205 4.14075 4.12863 4.11558 4.10149 4.08625 4.06973 4.05182 4.03239 4.01133 3.98852 3.96384 3.93717 3.9084 3.87742 3.84414 3.80844 3.77026 3.7295 3.68612 3.64007 3.59133 3.53991 3.48587 3.4293 3.37034 3.30921 3.2462 3.18172 3.11627 3.05049 2.98515 2.92122 2.85979 2.80213 2.74963 2.70376 2.66599 2.63767 2.61994 2.61358 2.61893 2.63586 2.66374 2.70158 2.74808 2.8018 2.86123 2.92496 2.99165 3.06015 3.12945 3.19873 3.26731 3.33465 3.40032 3.46402 3.5255 3.5846 3.64122 3.69527 3.74675 3.79565 3.84198 3.88579 3.92713 3.96606 4.00263 4.03693 4.06902 4.09897 4.12686 4.15275 4.17671 4.19881 4.2191 4.23765 4.2545 4.26971 4.28333 4.29539 4.30593 4.31498 4.32257 4.32872 4.33346 4.33678 4.33871 4.33924 4.33838 4.33612 4.33244 4.32733 4.32077 4.31273 4.30319 4.2921 4.27943 4.26512 4.24913 4.2314 4.21185 4.19044 4.16707 4.14168 4.11417 4.08447 4.05246 4.01807 3.98118 3.94169 3.89949 3.85448 3.80655 3.75561 3.70155 3.64429 3.58378 3.51995 3.45281 3.3824 3.30879 3.23218 3.15286 3.07125 2.988 2.90401 2.82051 2.73923 2.66245 2.59318 2.53514 2.49256 2.4693 2.46736 2.48572 2.52079 2.56792 2.62269 2.68147 2.74147 2.80062 2.85746 2.91097 2.96048 3.00559 3.04613 3.08207 3.11353 3.14074 3.16402 3.18376 3.20042 3.21451 3.22657 3.23714 3.24677 3.25599 3.26528 3.27503 3.28558 3.29715 3.30985 3.3237 3.33859 3.35434 3.37068 3.38731 3.40388 3.42001 3.43533 3.4495 3.46218 3.47306 3.4819 3.48846 3.49257 3.49409 3.49295 3.4891 3.48256 3.47337 3.46165 3.44756 3.43129 3.41313 3.39337 3.37239 3.35059 3.32846 3.30648 3.28519 3.26515 3.24692 3.23102 3.21797 3.2082 3.20206 3.19981 3.20158 3.2074 3.21715 3.23061 3.24748 3.26734 3.28974 3.31417 3.34012 3.36706 3.39449 3.42191 3.44887 3.47493 3.49971 3.52285 3.54405 3.56302 3.57952 3.59333 3.60427 3.61217 3.61691 3.61838 3.61649 3.61118 3.60241 3.59015 3.57444 3.5553 3.5328 3.50706 3.47822 3.4465 3.41214 3.37547 3.33689 3.29688 3.25601 3.21493 3.1744 3.13522 3.09828 3.06445 3.03454 3.00927 2.98917 2.97451 2.96528 2.96119 2.96169 2.96603 2.97332 2.98263 2.99306 3.00374 3.01393 3.02302 3.03053 3.03612 3.03963 3.04101 3.04038 3.03799 3.03421 3.02957 3.02468 3.02025 3.01702 3.01577 3.01721 3.02197 3.0305 3.04305 3.05964 3.08005 3.10386 3.13047 3.15919 3.18924 3.21986 3.25033 3.27998 3.30822 3.33454 3.35856 3.37995 3.39849 3.41405 3.42657 3.43607 3.44264 3.44646 3.44775 3.44682 3.44404 3.43982 3.43466 3.42906 3.42358 3.41881 3.41531 3.41364 3.41431 3.41775 3.42433 3.43427 3.44773 3.4647 3.48511 3.50875 3.53536 3.56459 3.59609 3.62946 3.66431 3.70026 3.73695 3.77404 3.81125 3.84831 3.88499 3.9211 3.95647 3.99097 4.0245 4.05697 4.08832 4.11851 4.1475 4.17529 4.20187 4.22725 4.25144 4.27446 4.29633 4.3171 4.33678 4.35542 4.37305 4.38972 4.40545 4.4203 4.4343 4.44748 4.45989 4.47157 4.48255 4.49287 4.50256 4.51165 4.52018 4.52819 4.53569 4.54271
4.38236 4.37366 4.36498 4.35632 4.34771 4.33915 4.33066 4.32224 4.3139 4.30564 4.29744 4.28932 4.28123 4.27317 4.26511 4.25701 4.24882 4.2405 4.232 4.22325 4.21418 4.20472 4.19479 4.18429 4.17313 4.16123 4.14847 4.13475 4.11996 4.10399 4.08673 4.06805 4.04785 4.02601 4.00241 3.97693 3.94946 3.91988 3.88809 3.85399 3.81748 3.77847 3.73689 3.69268 3.6458 3.59623 3.54398 3.48911 3.43172 3.37196 3.31007 3.24634 3.18121 3.11519 3.04896 2.98334 2.91932 2.85803 2.80077 2.74897 2.70408 2.66754 2.64065 2.62445 2.61961 2.62636 2.64446 2.67322 2.71161 2.75835 2.81201 2.87117 2.93444 3.00055 3.06839 3.13699 3.20556 3.27343 3.34008 3.40511 3.4682 3.52912 3.58771 3.64385 3.69748 3.74857 3.79712 3.84314 3.88667 3.92777 3.96647 4.00286 4.03698 4.06892 4.09874 4.12651 4.1523 4.17616 4.19818 4.2184 4.23687 4.25366 4.26882 4.28237 4.29438 4.30486 4.31385 4.32138 4.32747 4.33214 4.3354 4.33725 4.3377 4.33675 4.33439 4.33061 4.32539 4.3187 4.31053 4.30084 4.2896 4.27675 4.26225 4.24605 4.22808 4.20829 4.1866 4.16293 4.1372 4.10933 4.07921 4.04676 4.01186 3.97442 3.9343 3.89141 3.84562 3.79682 3.74488 3.6897 3.63116 3.56919 3.50371 3.43466 3.36205 3.28591 3.20637 3.12363 3.03805 2.95017 2.86077 2.77097 2.6824 2.5973 2.51883 2.45132 2.40041 2.3724 2.37131 2.39545 2.43862 2.49406 2.55634 2.62146 2.68658 2.7497 2.80946 2.86496 2.91564 2.96119 3.00151 3.03666 3.06684 3.09233 3.11353 3.13092 3.14502 3.15645 3.16584 3.17384 3.18111 3.18829 3.19595 3.20459 3.21459 3.22621 3.23958 3.25467 3.27135 3.28935 3.30832 3.32785 3.34751 3.36683 3.38536 3.40267 3.41837 3.43212 3.44361 3.45259 3.45886 3.46227 3.46272 3.46016 3.45461 3.4461 3.43476 3.42074 3.40427 3.3856 3.36508 3.3431 3.3201 3.29659 3.27313 3.2503 3.22874 3.20907 3.19192 3.17785 3.16739 3.16094 3.15879 3.1611 3.16787 3.17896 3.19411 3.21292 3.23492 3.25958 3.28631 3.31453 3.34366 3.37315 3.40246 3.43112 3.45867 3.48471 3.5089 3.5309 3.55044 3.56728 3.5812 3.59202 3.59958 3.60375 3.60442 3.6015 3.59491 3.58462 3.57059 3.55283 3.53137 3.50626 3.47759 3.44552 3.41022 3.37196 3.33106 3.28793 3.2431 3.19717 3.1509 3.10517 3.06095 3.01933 2.98145 2.94839 2.92115 2.90048 2.88679 2.88011 2.88008 2.88597 2.89678 2.91139 2.92862 2.94734 2.96653 2.98534 3.00306 3.01917 3.03329 3.04524 3.05497 3.06257 3.06827 3.07242 3.07546 3.07793 3.08042 3.08357 3.088 3.09429 3.10294 3.11431 3.12862 3.14591 3.16604 3.18871 3.2135 3.23989 3.26729 3.29512 3.32278 3.34974 3.3755 3.39964 3.42182 3.44175 3.45925 3.47418 3.48649 3.49619 3.50337 3.50817 3.5108 3.51152 3.51064 3.50855 3.50565 3.50238 3.49922 3.49666 3.49516 3.49519 3.49717 3.50147 3.50837 3.51809 3.53076 3.54639 3.56494 3.58627 3.61017 3.63638 3.66462 3.69457 3.7259 3.7583 3.79146 3.8251 3.85894 3.89276 3.92633 3.95949 3.99207 4.02395 4.05502 4.08518 4.11439 4.14258 4.16972 4.19578 4.22077 4.24467 4.2675 4.28926 4.30997 4.32967 4.34836 4.3661 4.38289 4.39878 4.41381 4.428 4.4414 4.45403 4.46593 4.47714 4.48769 4.49761 4.50693 4.51569 4.52391 4.53163 4.53886 4.54565
4.39958 4.39147 4.38336 4.37524 4.36715 4.35907 4.35103 4.34302 4.33505 4.3271 4.31918 4.31126 4.30333 4.29537 4.28735 4.27922 4.27095 4.26249 4.25379 4.24478 4.2354 4.22557 4.21522 4.20426 4.1926 4.18015 4.16682 4.15249 4.13707 4.12044 4.1025 4.08314 4.06223 4.03967 4.01533 3.98911 3.96088 3.93054 3.89798 3.86309 3.82578 3.78596 3.74354 3.69847 3.6507 3.60021 3.54702 3.49116 3.43275 3.37192 3.30891 3.24403 3.1777 3.11047 3.04303 2.97621 2.91105 2.84874 2.79064 2.73824 2.69309 2.65668 2.63035 2.61513 2.61164 2.62002 2.63989 2.67044 2.71052 2.75875 2.81366 2.87379 2.93776 3.00433 3.07242 3.1411 3.20961 3.27732 3.34375 3.4085 3.47128 3.53187 3.59013 3.64594 3.69926 3.75006 3.79833 3.8441 3.8874 3.92827 3.96679 4.003 4.03697 4.06877 4.09846 4.12612 4.15181 4.17559 4.19752 4.21767 4.23608 4.25281 4.26791 4.28141 4.29336 4.3038 4.31274 4.32022 4.32626 4.33088 4.33407 4.33587 4.33625 4.33523 4.3328 4.32894 4.32363 4.31685 4.30858 4.29878 4.28742 4.27444 4.25981 4.24346 4.22533 4.20536 4.18348 4.1596 4.13365 4.10553 4.07515 4.0424 4.00718 3.96937 3.92886 3.88553 3.83925 3.78989 3.73733 3.68144 3.62211 3.55923 3.4927 3.42245 3.34844 3.27069 3.18925 3.10429 3.01609 2.9251 2.83198 2.73775 2.64384 2.55232 2.46619 2.38974 2.32939 2.29466 2.29493 2.3265 2.37788 2.4404 2.50828 2.57765 2.64584 2.71103 2.77198 2.82791 2.87835 2.92306 2.962 2.9953 3.02318 3.046 3.0642 3.07834 3.08902 3.09694 3.10283 3.10748 3.11168 3.11618 3.12169 3.1288 3.13799 3.14956 3.16364 3.18015 3.1989 3.21951 3.24152 3.2644 3.28758 3.3105 3.33261 3.3534 3.37241 3.38925 3.40357 3.41508 3.42357 3.42888 3.43088 3.42954 3.42484 3.41684 3.40566 3.39144 3.37443 3.35489 3.33319 3.30974 3.28501 3.25957 3.23402 3.20904 3.18534 3.16364 3.14467 3.12911 3.11757 3.11055 3.10839 3.11126 3.11916 3.1319 3.14914 3.1704 3.1951 3.22261 3.25224 3.28334 3.31524 3.34734 3.37907 3.40991 3.4394 3.46712 3.49271 3.51586 3.5363 3.55377 3.56807 3.57902 3.58647 3.59028 3.59035 3.58658 3.5789 3.56726 3.55161 3.53195 3.50829 3.48067 3.44917 3.4139 3.37505 3.33285 3.28761 3.23976 3.18982 3.13846 3.0865 3.03492 2.98491 2.93778 2.89498 2.85798 2.82814 2.80652 2.79378 2.78998 2.79461 2.80669 2.82489 2.84771 2.87367 2.90137 2.92962 2.95743 2.98402 3.00882 3.03144 3.05169 3.06951 3.08498 3.09833 3.10987 3.11998 3.12916 3.13791 3.14676 3.15624 3.16684 3.17897 3.19293 3.20893 3.22703 3.24714 3.26907 3.29252 3.31711 3.34241 3.36795 3.39328 3.41796 3.4416 3.46384 3.48439 3.50301 3.51954 3.53385 3.54591 3.55572 3.56335 3.56894 3.57265 3.57472 3.57543 3.57509 3.57406 3.57271 3.57145 3.57067 3.57079 3.57219 3.5752 3.58015 3.58728 3.59676 3.60871 3.62317 3.64011 3.65943 3.68098 3.70455 3.72993 3.75685 3.78505 3.81426 3.84423 3.87471 3.90546 3.93627 3.96695 3.99734 4.02728 4.05666 4.08537 4.11332 4.14045 4.1667 4.19203 4.21641 4.23983 4.26227 4.28375 4.30426 4.32382 4.34244 4.36015 4.37697 4.39292 4.40804 4.42235 4.43588 4.44866 4.46073 4.47211 4.48284 4.49295 4.50246 4.51141 4.51983 4.52773 4.53516 4.54212 4.54866
4.41559 4.40801 4.4004 4.39277 4.38514 4.3775 4.36985 4.36221 4.35456 4.34689 4.3392 4.33147 4.32368 4.3158 4.30781 4.29966 4.29132 4.28273 4.27384 4.2646 4.25494 4.24479 4.23406 4.22269 4.21058 4.19765 4.1838 4.16893 4.15294 4.13572 4.11717 4.09718 4.07562 4.0524 4.02739 4.00048 3.97155 3.94049 3.9072 3.87155 3.83346 3.79283 3.74958 3.70363 3.65493 3.60347 3.54922 3.49224 3.43261 3.37046 3.30602 3.23957 3.17155 3.10247 3.03304 2.96412 2.89677 2.83226 2.77204 2.71773 2.67102 2.6336 2.60694 2.59216 2.58991 2.60021 2.62253 2.65584 2.69875 2.74971 2.8071 2.86939 2.93515 3.00316 3.07235 3.14183 3.2109 3.27897 3.34559 3.4104 3.47315 3.53365 3.59176 3.6474 3.70052 3.75112 3.79919 3.84476 3.88787 3.92858 3.96693 4.00299 4.03682 4.0685 4.09808 4.12564 4.15124 4.17494 4.1968 4.21688 4.23524 4.25192 4.26697 4.28043 4.29234 4.30273 4.31163 4.31907 4.32507 4.32964 4.3328 4.33455 4.33489 4.33382 4.33133 4.32741 4.32205 4.31521 4.30687 4.297 4.28556 4.27251 4.25779 4.24135 4.22313 4.20307 4.18108 4.1571 4.13103 4.10279 4.07228 4.0394 4.00404 3.96608 3.92541 3.8819 3.83542 3.78585 3.73306 3.67692 3.6173 3.55409 3.48718 3.41651 3.342 3.26366 3.18153 3.09575 3.00656 2.91438 2.81981 2.7238 2.62768 2.53339 2.44371 2.36265 2.29608 2.25368 2.25612 2.29366 2.3491 2.41421 2.48365 2.55377 2.62205 2.68676 2.74674 2.80124 2.84982 2.89227 2.92858 2.95885 2.98337 3.00251 3.01676 3.0267 3.03302 3.03651 3.03801 3.03845 3.03875 3.03983 3.04257 3.0477 3.05579 3.0672 3.08205 3.10023 3.1214 3.14508 3.17064 3.19738 3.22459 3.25158 3.27768 3.3023 3.32491 3.34506 3.36237 3.37653 3.38731 3.39451 3.39803 3.39781 3.39384 3.38618 3.37493 3.36026 3.34239 3.32163 3.29833 3.27293 3.24595 3.218 3.18975 3.16195 3.13543 3.11103 3.08962 3.07202 3.05898 3.05109 3.04878 3.05225 3.06149 3.07625 3.09607 3.12035 3.14838 3.17939 3.21258 3.24718 3.28245 3.31771 3.35236 3.38585 3.41769 3.44747 3.47483 3.49944 3.52105 3.53942 3.55436 3.56568 3.57324 3.57691 3.57659 3.57218 3.5636 3.5508 3.53372 3.51235 3.48667 3.45672 3.42254 3.38423 3.34194 3.29587 3.24633 3.19371 3.13852 3.08146 3.0234 2.96542 2.90887 2.85534 2.80664 2.76472 2.73145 2.70841 2.69655 2.696 2.70606 2.72531 2.75191 2.78388 2.81934 2.85662 2.89431 2.93133 2.96683 3.00023 3.03114 3.05937 3.08488 3.10776 3.12821 3.14654 3.1631 3.17832 3.19267 3.20659 3.22056 3.23497 3.2502 3.26653 3.28412 3.30307 3.32335 3.34483 3.36733 3.39055 3.41419 3.43789 3.4613 3.48409 3.50593 3.52653 3.54566 3.56312 3.57876 3.5925 3.60428 3.61413 3.62209 3.62829 3.63288 3.63605 3.63805 3.63915 3.63964 3.63986 3.64013 3.64081 3.64223 3.6447 3.64853 3.65396 3.66122 3.67044 3.68175 3.69517 3.7107 3.72827 3.74776 3.76903 3.79188 3.81613 3.84154 3.8679 3.89499 3.92259 3.95051 3.97856 4.00656 4.03436 4.06184 4.08886 4.11533 4.14117 4.1663 4.19068 4.21426 4.237 4.25889 4.27991 4.30006 4.31934 4.33776 4.35532 4.37205 4.38796 4.40307 4.41741 4.431 4.44387 4.45604 4.46754 4.4784 4.48865 4.49831 4.50741 4.51598 4.52405 4.53163 4.53876 4.54545 4.55173
4.43046 4.42335 4.41619 4.409 4.40178 4.39452 4.38723 4.37991 4.37254 4.36513 4.35765 4.35008 4.34241 4.33461 4.32664 4.31847 4.31006 4.30136 4.29231 4.28286 4.27295 4.26251 4.25146 4.23972 4.22721 4.21385 4.19954 4.18418 4.16768 4.14993 4.13083 4.11027 4.08813 4.06431 4.03868 4.01114 3.98157 3.94984 3.91586 3.87951 3.84067 3.79926 3.75518 3.70835 3.65872 3.60623 3.55087 3.49266 3.43167 3.36801 3.30187 3.23352 3.16335 3.09188 3.01978 2.94792 2.87739 2.80952 2.74589 2.6883 2.6387 2.59904 2.57111 2.55624 2.55514 2.56776 2.5933 2.6304 2.67734 2.73224 2.79329 2.85881 2.92734 2.99762 3.06864 3.13955 3.2097 3.27855 3.34572 3.41089 3.47385 3.53445 3.59258 3.64818 3.70122 3.7517 3.79964 3.84507 3.88805 3.92861 3.96683 4.00277 4.03649 4.06806 4.09755 4.12503 4.15055 4.17418 4.19598 4.21601 4.23432 4.25096 4.26597 4.27939 4.29127 4.30163 4.3105 4.31792 4.32389 4.32843 4.33156 4.33328 4.3336 4.3325 4.32998 4.32603 4.32063 4.31376 4.30539 4.29549 4.28402 4.27093 4.25618 4.23971 4.22147 4.20138 4.17938 4.15539 4.12932 4.10108 4.07059 4.03773 4.00241 3.9645 3.9239 3.88048 3.83412 3.78469 3.73206 3.67612 3.61673 3.55379 3.4872 3.41689 3.34281 3.26495 3.18339 3.09827 3.00985 2.91855 2.82503 2.73024 2.63558 2.54307 2.4556 2.37738 2.31473 2.27754 2.27665 2.30775 2.35816 2.41909 2.48482 2.55151 2.61649 2.67794 2.73464 2.78576 2.83082 2.86957 2.90195 2.92807 2.94817 2.96264 2.97195 2.97675 2.97777 2.97587 2.97201 2.96727 2.96275 2.95959 2.95884 2.96144 2.9681 2.97924 2.995 3.01516 3.03924 3.06655 3.09625 3.12746 3.15927 3.19082 3.22135 3.25015 3.27664 3.30032 3.32077 3.33767 3.35076 3.35985 3.36484 3.36566 3.36229 3.3548 3.34328 3.32791 3.3089 3.28657 3.26127 3.23347 3.20373 3.17268 3.14108 3.10978 3.07971 3.05188 3.02732 3.00704 2.99197 2.98287 2.98026 2.9844 2.99525 3.01245 3.03543 3.0634 3.09546 3.13068 3.16811 3.20686 3.24608 3.28505 3.3231 3.35965 3.39423 3.42641 3.45583 3.48219 3.50524 3.52475 3.54054 3.55244 3.56032 3.56407 3.56356 3.55872 3.54947 3.53573 3.51745 3.4946 3.46715 3.43511 3.39851 3.3574 3.31191 3.26221 3.20855 3.1513 3.09093 3.02813 2.96377 2.89901 2.83531 2.77452 2.71887 2.67087 2.63315 2.608 2.59691 2.60013 2.61656 2.64411 2.6802 2.72222 2.76783 2.81505 2.86234 2.90851 2.95272 2.99439 3.03317 3.06889 3.10153 3.13121 3.15814 3.1826 3.20494 3.22555 3.24485 3.26324 3.28115 3.29893 3.31691 3.33535 3.35443 3.37424 3.39481 3.41607 3.43789 3.46008 3.48242 3.50465 3.52651 3.54773 3.56806 3.58728 3.60518 3.62162 3.63648 3.64968 3.66118 3.67101 3.67921 3.68588 3.69116 3.69522 3.69826 3.70051 3.70225 3.70373 3.70525 3.70709 3.70953 3.71286 3.7173 3.72309 3.73039 3.73935 3.75006 3.76256 3.77684 3.79288 3.81057 3.82981 3.85044 3.87232 3.89525 3.91906 3.94356 3.96856 3.9939 4.01941 4.04494 4.07035 4.09552 4.12033 4.14469 4.16853 4.19177 4.21436 4.23626 4.25742 4.27783 4.29747 4.31633 4.33441 4.35171 4.36823 4.38399 4.399 4.41328 4.42685 4.43972 4.45192 4.46348 4.47442 4.48476 4.49452 4.50373 4.51242 4.52061 4.52832 4.53558 4.54241 4.54882 4.55485
4.44425 4.43756 4.43081 4.42401 4.41715 4.41024 4.40327 4.39623 4.38912 4.38193 4.37463 4.36721 4.35965 4.35191 4.34397 4.33578 4.32731 4.31851 4.30932 4.29969 4.28956 4.27886 4.26752 4.25546 4.2426 4.22885 4.21414 4.19835 4.1814 4.16318 4.14359 4.12252 4.09986 4.0755 4.04932 4.02121 3.99105 3.95872 3.9241 3.88708 3.84756 3.80541 3.76054 3.71287 3.6623 3.60879 3.5523 3.49283 3.4304 3.36511 3.29711 3.22662 3.154 3.07972 3.00441 2.92892 2.85435 2.78208 2.71381 2.65157 2.59765 2.55443 2.52418 2.50863 2.50866 2.52409 2.55377 2.5958 2.64796 2.70797 2.77373 2.84341 2.91548 2.9887 3.0621 3.13489 3.20649 3.27644 3.34442 3.41017 3.47352 3.53437 3.59264 3.64829 3.70133 3.75177 3.79964 3.84499 3.88787 3.92834 3.96646 4.0023 4.03593 4.06742 4.09683 4.12424 4.1497 4.17328 4.19504 4.21502 4.2333 4.2499 4.26488 4.27828 4.29014 4.30048 4.30934 4.31674 4.3227 4.32723 4.33035 4.33205 4.33236 4.33125 4.32872 4.32476 4.31936 4.31249 4.30412 4.29422 4.28275 4.26968 4.25495 4.23852 4.22031 4.20028 4.17835 4.15443 4.12847 4.10036 4.07001 4.03734 4.00223 3.96458 3.92427 3.8812 3.83525 3.78629 3.73421 3.6789 3.62024 3.55815 3.49255 3.42337 3.3506 3.27427 3.19448 3.11142 3.02541 2.93694 2.84675 2.75592 2.66596 2.57907 2.49831 2.42795 2.37377 2.34249 2.33862 2.36026 2.40057 2.45241 2.5102 2.56987 2.62857 2.68428 2.73558 2.78154 2.82156 2.85529 2.88259 2.90351 2.91824 2.92712 2.93062 2.92938 2.92417 2.91592 2.90571 2.89477 2.88442 2.87604 2.87097 2.8704 2.87525 2.88605 2.9029 2.92547 2.95306 2.9847 3.01927 3.05562 3.09262 3.12927 3.16464 3.19795 3.22856 3.25593 3.27962 3.29931 3.31472 3.32568 3.33207 3.33382 3.33094 3.32347 3.3115 3.29521 3.27481 3.2506 3.22296 3.19235 3.15935 3.12464 3.08905 3.05351 3.01911 2.98703 2.95852 2.93483 2.91712 2.90639 2.90331 2.90821 2.92099 2.94119 2.968 3.00042 3.03731 3.0775 3.11988 3.16341 3.20715 3.25031 3.29218 3.33218 3.36981 3.40466 3.4364 3.46473 3.48942 3.51026 3.5271 3.53978 3.54818 3.55219 3.55171 3.54665 3.53695 3.52252 3.50331 3.47926 3.45035 3.41655 3.37786 3.33433 3.28603 3.23308 3.17571 3.1142 3.04901 2.98074 2.91023 2.83865 2.76751 2.69886 2.63529 2.57997 2.53649 2.50832 2.49785 2.5055 2.52949 2.56662 2.61325 2.66598 2.72202 2.77918 2.8358 2.89071 2.94309 2.99243 3.03842 3.08094 3.12002 3.15579 3.18847 3.21835 3.24577 3.27109 3.29471 3.317 3.33833 3.35904 3.37944 3.39976 3.42018 3.44083 3.46175 3.48292 3.50428 3.52571 3.54704 3.56811 3.5887 3.60863 3.62771 3.64576 3.66262 3.67818 3.69234 3.70505 3.71628 3.72605 3.7344 3.74143 3.74725 3.75201 3.75588 3.75907 3.7618 3.76429 3.7668 3.76956 3.77282 3.7768 3.78171 3.78774 3.79503 3.80371 3.81386 3.82552 3.83871 3.85339 3.8695 3.88695 3.90562 3.9254 3.94612 3.96765 3.98982 4.01248 4.03548 4.05868 4.08193 4.10513 4.12816 4.15091 4.1733 4.19525 4.2167 4.23759 4.25789 4.27754 4.29653 4.31484 4.33245 4.34936 4.36557 4.38108 4.39589 4.41002 4.42348 4.43629 4.44845 4.46 4.47096 4.48133 4.49115 4.50043 4.50919 4.51747 4.52528 4.53264 4.53957 4.54609 4.55223 4.558
4.45703 4.45072 4.44434 4.43789 4.43136 4.42475 4.41807 4.41129 4.4044 4.3974 4.39027 4.38298 4.37551 4.36784 4.35992 4.35172 4.34319 4.3343 4.325 4.31521 4.30489 4.29396 4.28237 4.27003 4.25686 4.24278 4.2277 4.21154 4.19419 4.17556 4.15554 4.13402 4.1109 4.08607 4.0594 4.03079 4.0001 3.96723 3.93205 3.89444 3.85428 3.81146 3.76587 3.7174 3.66596 3.61149 3.5539 3.49319 3.42934 3.36242 3.29251 3.21981 3.1446 3.0673 2.98847 2.90892 2.82969 2.7522 2.67824 2.61006 2.55035 2.5021 2.46831 2.45139 2.45256 2.47148 2.50638 2.55458 2.61314 2.67926 2.75054 2.82501 2.90113 2.97768 3.05376 3.12868 3.20193 3.27315 3.34207 3.40851 3.47236 3.53354 3.59202 3.6478 3.7009 3.75134 3.79919 3.84449 3.88731 3.92771 3.96576 4.00153 4.03509 4.06652 4.09588 4.12324 4.14866 4.1722 4.19392 4.21388 4.23213 4.24872 4.26369 4.27708 4.28893 4.29927 4.30812 4.31552 4.32147 4.32601 4.32913 4.33084 4.33115 4.33005 4.32754 4.32359 4.31821 4.31136 4.30302 4.29316 4.28174 4.26873 4.25407 4.23772 4.21962 4.19971 4.17791 4.15418 4.12841 4.10054 4.07047 4.03812 4.00339 3.96618 3.92638 3.8839 3.83862 3.79045 3.73927 3.685 3.62754 3.56683 3.50281 3.43546 3.3648 3.2909 3.21392 3.13412 3.05188 2.9678 2.88271 2.79779 2.71466 2.63554 2.56336 2.50188 2.45541 2.42804 2.42191 2.43588 2.46601 2.5073 2.55511 2.60568 2.6561 2.70426 2.74859 2.788 2.82177 2.84942 2.87071 2.88559 2.89416 2.8967 2.89365 2.88561 2.87335 2.85786 2.84033 2.82213 2.80485 2.79017 2.77981 2.77532 2.77791 2.78829 2.80653 2.83209 2.86395 2.90074 2.94099 2.98321 3.02603 3.06824 3.10882 3.1469 3.1818 3.21295 3.23992 3.26238 3.28008 3.29283 3.30053 3.30313 3.3006 3.29301 3.28045 3.26306 3.24107 3.21475 3.18447 3.1507 3.11402 3.07515 3.03496 2.99448 2.95495 2.91773 2.88435 2.85637 2.8353 2.82243 2.81867 2.82444 2.83959 2.86344 2.89491 2.93265 2.97522 3.02118 3.06921 3.11812 3.16688 3.21464 3.26067 3.30438 3.3453 3.38303 3.41725 3.44771 3.47419 3.49652 3.51456 3.52817 3.53725 3.54171 3.54145 3.5364 3.52648 3.51163 3.49177 3.46686 3.43684 3.40168 3.36136 3.31589 3.2653 3.2097 3.14922 3.08413 3.01479 2.94173 2.86573 2.78785 2.70961 2.63308 2.56107 2.49734 2.44663 2.41417 2.40407 2.41709 2.45011 2.49804 2.55582 2.61934 2.68546 2.7519 2.81706 2.87983 2.93947 2.99555 3.04784 3.09628 3.14093 3.18196 3.2196 3.25414 3.28592 3.31528 3.34258 3.36819 3.39246 3.41568 3.43816 3.46012 3.48174 3.50316 3.52445 3.54563 3.56668 3.58753 3.60808 3.62822 3.64779 3.66667 3.6847 3.70177 3.71775 3.73255 3.7461 3.75837 3.76934 3.77902 3.78747 3.79476 3.80099 3.8063 3.81083 3.81476 3.81827 3.82157 3.82486 3.82834 3.83223 3.8367 3.84195 3.84812 3.85535 3.86375 3.87337 3.88428 3.89649 3.90996 3.92467 3.94054 3.95749 3.9754 3.99416 4.01365 4.03373 4.05427 4.07515 4.09624 4.11742 4.13859 4.15963 4.18047 4.20102 4.22121 4.24098 4.26027 4.27904 4.29725 4.31489 4.33192 4.34833 4.36412 4.37927 4.39379 4.40769 4.42096 4.43362 4.44568 4.45716 4.46806 4.47841 4.48823 4.49753 4.50634 4.51466 4.52253 4.52996 4.53696 4.54357 4.54979 4.55565 4.56117
4.46887 4.4629 4.45685 4.45071 4.44448 4.43815 4.43171 4.42516 4.41848 4.41166 4.40467 4.3975 4.39012 4.3825 4.3746 4.36639 4.35783 4.34886 4.33945 4.32953 4.31904 4.30793 4.29611 4.28352 4.27009 4.25572 4.24034 4.22385 4.20616 4.18717 4.16677 4.14488 4.12136 4.09611 4.06903 4.03997 4.00884 3.9755 3.93983 3.9017 3.861 3.81759 3.77136 3.7222 3.66999 3.61464 3.55607 3.49423 3.42907 3.36062 3.28892 3.21411 3.1364 3.05612 2.97378 2.89007 2.80598 2.72286 2.64253 2.56739 2.50053 2.44568 2.40688 2.38773 2.39012 2.41343 2.45482 2.51041 2.57632 2.64921 2.72641 2.8059 2.88616 2.96608 3.04485 3.12188 3.19678 3.26925 3.33912 3.40625 3.4706 3.53213 3.59084 3.64677 3.69994 3.75043 3.79828 3.84355 3.88634 3.92669 3.9647 4.00043 4.03395 4.06534 4.09466 4.12199 4.14738 4.17091 4.19262 4.21257 4.23081 4.2474 4.26237 4.27576 4.28761 4.29796 4.30682 4.31423 4.3202 4.32475 4.32789 4.32963 4.32996 4.32889 4.3264 4.3225 4.31716 4.31036 4.30208 4.29229 4.28095 4.26803 4.25349 4.23727 4.21932 4.19959 4.17802 4.15453 4.12906 4.10152 4.07185 4.03995 4.00574 3.96914 3.93004 3.88836 3.84401 3.79689 3.74693 3.69405 3.63819 3.57931 3.51739 3.45244 3.38453 3.3138 3.24045 3.1648 3.08733 3.00869 2.92978 2.85183 2.77645 2.70569 2.64211 2.58866 2.54835 2.52367 2.5157 2.52363 2.54495 2.57623 2.61387 2.65466 2.69594 2.7356 2.77202 2.80403 2.83076 2.85163 2.86628 2.87455 2.87644 2.87215 2.86204 2.84664 2.82672 2.80326 2.77753 2.75108 2.72573 2.70357 2.68678 2.67745 2.67726 2.68717 2.70721 2.73653 2.7736 2.81651 2.8633 2.9121 2.96126 3.00942 3.05545 3.09842 3.13765 3.17256 3.20275 3.2279 3.24777 3.2622 3.2711 3.27441 3.27214 3.26432 3.25104 3.23244 3.20872 3.18014 3.14704 3.10987 3.06921 3.02577 2.98047 2.93441 2.88895 2.84568 2.80643 2.77316 2.74783 2.73218 2.72748 2.73429 2.75235 2.78068 2.81778 2.86182 2.91097 2.96347 3.01777 3.07256 3.12671 3.17935 3.22975 3.27734 3.32166 3.36236 3.39915 3.43181 3.46017 3.48407 3.50341 3.51807 3.52797 3.53303 3.53318 3.52834 3.51846 3.50346 3.48328 3.45786 3.42715 3.39109 3.34966 3.30284 3.25064 3.19313 3.1304 3.06267 2.99023 2.91353 2.83327 2.75039 2.66629 2.58294 2.50313 2.43083 2.37165 2.33315 2.32299 2.34283 2.38637 2.44554 2.51397 2.58717 2.66198 2.73625 2.80848 2.8777 2.94329 3.00488 3.06233 3.11562 3.16486 3.21022 3.25195 3.29035 3.32574 3.35844 3.38882 3.4172 3.44391 3.46924 3.49347 3.51681 3.53947 3.56157 3.58321 3.60444 3.62528 3.6457 3.66564 3.68503 3.70377 3.72178 3.73895 3.75519 3.77042 3.78457 3.7976 3.80947 3.82018 3.82977 3.83826 3.84573 3.85227 3.858 3.86304 3.86754 3.87168 3.8756 3.8795 3.88354 3.88791 3.89275 3.89823 3.90447 3.9116 3.9197 3.92884 3.93906 3.95038 3.96279 3.97625 3.99072 4.00613 4.02239 4.0394 4.05706 4.07526 4.0939 4.11286 4.13203 4.15132 4.17062 4.18985 4.20892 4.22776 4.2463 4.26449 4.28228 4.29962 4.31647 4.33282 4.34863 4.3639 4.3786 4.39274 4.40632 4.41932 4.43176 4.44364 4.45498 4.46578 4.47606 4.48582 4.4951 4.50389 4.51223 4.52012 4.52758 4.53463 4.54129 4.54757 4.5535 4.55908 4.56433
4.47983 4.47417 4.46841 4.46255 4.45658 4.4505 4.44429 4.43795 4.43145 4.42479 4.41793 4.41087 4.40357 4.396 4.38812 4.37991 4.37132 4.36229 4.35279 4.34275 4.33213 4.32085 4.30885 4.29605 4.28239 4.26778 4.25213 4.23537 4.21739 4.19809 4.17739 4.15516 4.13131 4.10573 4.07828 4.04887 4.01736 3.98364 3.94756 3.90901 3.86786 3.82397 3.77722 3.72748 3.67464 3.61857 3.55919 3.4964 3.43015 3.36041 3.28718 3.21055 3.13066 3.04777 2.96227 2.87478 2.78615 2.69761 2.61092 2.52848 2.45359 2.39066 2.34513 2.3226 2.32639 2.35531 2.40454 2.4684 2.54201 2.62161 2.70447 2.7886 2.8726 2.95551 3.03663 3.11549 3.19179 3.26533 3.336 3.40372 3.46849 3.53031 3.58922 3.64527 3.69853 3.74904 3.7969 3.84218 3.88494 3.92528 3.96326 3.99896 4.03246 4.06383 4.09314 4.12046 4.14585 4.16937 4.19109 4.21105 4.2293 4.2459 4.26088 4.27429 4.28617 4.29654 4.30543 4.31286 4.31886 4.32344 4.32661 4.32838 4.32876 4.32773 4.3253 4.32145 4.31617 4.30944 4.30125 4.29155 4.28033 4.26754 4.25315 4.23711 4.21937 4.19987 4.17857 4.1554 4.13029 4.10319 4.074 4.04267 4.00912 3.97326 3.93502 3.89432 3.8511 3.80527 3.75678 3.70559 3.65165 3.59496 3.53553 3.47343 3.40877 3.34172 3.27255 3.20164 3.12951 3.05685 2.98459 2.91392 2.84631 2.78356 2.72775 2.68107 2.64558 2.62281 2.61331 2.61645 2.63049 2.65299 2.68123 2.71259 2.74473 2.77571 2.80395 2.82822 2.84758 2.86136 2.8691 2.87051 2.86553 2.85421 2.83683 2.81384 2.78594 2.75408 2.71955 2.68401 2.64954 2.61864 2.59413 2.57886 2.57524 2.58466 2.60711 2.64118 2.68458 2.73464 2.78878 2.84472 2.90057 2.95484 3.00632 3.05412 3.09753 3.13604 3.16925 3.19689 3.21874 3.23469 3.24463 3.24854 3.24641 3.23827 3.22422 3.20436 3.17887 3.14798 3.112 3.07135 3.02657 2.97835 2.92759 2.87547 2.82342 2.77323 2.72707 2.68736 2.6567 2.63747 2.6315 2.63957 2.66126 2.6951 2.73892 2.79029 2.84688 2.90658 2.96762 3.02859 3.08832 3.14594 3.20074 3.25219 3.29989 3.34353 3.38287 3.41772 3.44795 3.47345 3.49413 3.50991 3.52073 3.52653 3.52725 3.52283 3.51322 3.49835 3.47818 3.45264 3.42167 3.38523 3.34328 3.29578 3.24276 3.18423 3.12029 3.0511 2.97694 2.89819 2.81548 2.72968 2.64207 2.55446 2.46947 2.39085 2.32411 2.27795 2.26682 2.29557 2.34947 2.41782 2.49417 2.57425 2.65514 2.73485 2.81204 2.88583 2.95569 3.02131 3.08259 3.13953 3.19226 3.24096 3.28588 3.32732 3.36556 3.40093 3.43376 3.46437 3.49305 3.52009 3.54574 3.57022 3.59373 3.6164 3.63834 3.65964 3.68032 3.70039 3.71984 3.73862 3.75669 3.77398 3.79043 3.80598 3.82057 3.83416 3.84672 3.85824 3.86872 3.87818 3.88668 3.89427 3.90104 3.90708 3.91251 3.91746 3.92207 3.92648 3.93084 3.93531 3.94002 3.94513 3.95075 3.95701 3.964 3.97181 3.98048 3.99007 4.0006 4.01205 4.0244 4.03763 4.05166 4.06644 4.08189 4.09792 4.11445 4.13137 4.14859 4.16603 4.18359 4.20119 4.21874 4.23619 4.25344 4.27046 4.28718 4.30355 4.31954 4.33512 4.35025 4.36491 4.37908 4.39276 4.40593 4.41859 4.43074 4.44238 4.45351 4.46414 4.47429 4.48395 4.49315 4.50189 4.51019 4.51807 4.52553 4.53259 4.53927 4.54559 4.55155 4.55718 4.56249 4.56749
4.48997 4.48458 4.47909 4.47348 4.46775 4.46189 4.45589 4.44973 4.4434 4.43688 4.43015 4.42318 4.41596 4.40843 4.40059 4.39237 4.38376 4.37468 4.36511 4.35498 4.34424 4.33283 4.32067 4.30771 4.29385 4.27904 4.26317 4.24618 4.22796 4.20841 4.18745 4.16496 4.14084 4.11498 4.08726 4.05756 4.02576 3.99173 3.95535 3.91648 3.87499 3.83075 3.78361 3.73346 3.68015 3.62357 3.5636 3.50013 3.43308 3.3624 3.28805 3.21008 3.12856 3.0437 2.95581 2.86539 2.77318 2.68028 2.58825 2.49935 2.41682 2.34527 2.29132 2.2637 2.26929 2.30541 2.36326 2.43511 2.51549 2.60064 2.68794 2.7756 2.86238 2.94745 3.03024 3.11038 3.18764 3.2619 3.33309 3.40119 3.46623 3.52823 3.58726 3.64338 3.69667 3.74721 3.79507 3.84034 3.88309 3.92342 3.9614 3.9971 4.0306 4.06197 4.09129 4.11862 4.14403 4.16757 4.18931 4.20929 4.22757 4.2442 4.25922 4.27267 4.28458 4.29498 4.30391 4.31139 4.31743 4.32205 4.32527 4.32709 4.32752 4.32655 4.32419 4.32041 4.31522 4.30858 4.30049 4.29092 4.27983 4.2672 4.25299 4.23716 4.21966 4.20045 4.17947 4.15668 4.132 4.10539 4.07678 4.0461 4.0133 3.9783 3.94105 3.90148 3.85954 3.81518 3.76836 3.71907 3.66729 3.61305 3.55641 3.49745 3.43634 3.3733 3.30862 3.24272 3.17616 3.10962 3.04399 2.98038 2.92006 2.86454 2.81542 2.77432 2.74262 2.72126 2.71051 2.70982 2.71792 2.73301 2.75301 2.7758 2.7994 2.82209 2.84237 2.85904 2.87113 2.87791 2.87882 2.8735 2.86177 2.84359 2.81911 2.7887 2.75292 2.71267 2.66918 2.62414 2.5798 2.53905 2.50543 2.48287 2.47497 2.48395 2.50965 2.54974 2.60068 2.65879 2.72082 2.78412 2.84663 2.9068 2.96345 3.01571 3.06294 3.10467 3.14056 3.17038 3.19395 3.21117 3.22197 3.22632 3.22423 3.21573 3.20089 3.1798 3.1526 3.11949 3.08075 3.03673 2.98792 2.93496 2.87872 2.82034 2.7613 2.70355 2.64952 2.60218 2.56491 2.54108 2.53339 2.54304 2.56931 2.60989 2.66163 2.72129 2.78596 2.85323 2.92119 2.98833 3.05355 3.11598 3.17499 3.23011 3.281 3.32741 3.36915 3.40608 3.43811 3.46515 3.48716 3.50409 3.51589 3.52252 3.52395 3.52013 3.51102 3.49657 3.47673 3.45146 3.4207 3.38441 3.34255 3.29512 3.2421 3.18354 3.11954 3.05025 2.97593 2.89701 2.81407 2.72801 2.64008 2.5521 2.46665 2.38744 2.31985 2.27232 2.26135 2.29393 2.35108 2.4223 2.50131 2.58392 2.66726 2.74939 2.82897 2.90515 2.97739 3.04539 3.10905 3.16836 3.22345 3.27447 3.32167 3.36531 3.40566 3.44303 3.47772 3.51002 3.54022 3.56858 3.59533 3.6207 3.64487 3.66798 3.69016 3.71149 3.73204 3.75182 3.77086 3.78914 3.80664 3.82333 3.83918 3.85413 3.86818 3.88128 3.89343 3.90463 3.91489 3.92423 3.9327 3.94035 3.94727 3.95355 3.95927 3.96455 3.96952 3.9743 3.97901 3.98378 3.98875 3.99403 3.99973 4.00595 4.01278 4.02029 4.02853 4.03754 4.04734 4.05793 4.06929 4.0814 4.09422 4.10768 4.12174 4.13631 4.15132 4.16669 4.18235 4.19822 4.21421 4.23025 4.24628 4.26222 4.27802 4.29362 4.30897 4.32404 4.33877 4.35314 4.36712 4.38069 4.39383 4.40653 4.41878 4.43057 4.4419 4.45277 4.46318 4.47314 4.48265 4.49172 4.50036 4.50859 4.51641 4.52383 4.53087 4.53755 4.54387 4.54985 4.5555 4.56084 4.56588 4.57063
4.49934 4.49421 4.48895 4.48357 4.47806 4.4724 4.46658 4.46059 4.45441 4.44802 4.4414 4.43453 4.42737 4.4199 4.41208 4.40387 4.39524 4.38613 4.37651 4.36631 4.35547 4.34395 4.33167 4.31856 4.30456 4.28957 4.27354 4.25636 4.23794 4.2182 4.19704 4.17435 4.15002 4.12395 4.09602 4.06612 4.03411 3.99987 3.96328 3.92421 3.8825 3.83804 3.79068 3.74028 3.68672 3.62985 3.56955 3.50572 3.43824 3.36705 3.29211 3.21341 3.13102 3.04509 2.95588 2.86383 2.76961 2.67421 2.57905 2.48622 2.3987 2.32083 2.259 2.22398 2.23238 2.27628 2.34071 2.41764 2.5019 2.59002 2.67958 2.76896 2.85704 2.94306 3.02656 3.10721 3.18483 3.25933 3.33067 3.39886 3.46395 3.52597 3.585 3.64111 3.69439 3.74491 3.79276 3.83802 3.88077 3.9211 3.95908 3.9948 4.02832 4.05972 4.08907 4.11644 4.14188 4.16547 4.18725 4.20728 4.22561 4.24229 4.25735 4.27085 4.28281 4.29327 4.30225 4.30978 4.31588 4.32057 4.32385 4.32573 4.32623 4.32533 4.32305 4.31936 4.31426 4.30774 4.29977 4.29033 4.27941 4.26696 4.25295 4.23736 4.22013 4.20124 4.18062 4.15824 4.13404 4.10798 4.08 4.05004 4.01806 3.98401 3.94784 3.9095 3.86896 3.82619 3.78118 3.73393 3.68447 3.63284 3.57914 3.5235 3.46609 3.40717 3.34708 3.28623 3.22517 3.16458 3.10527 3.04819 2.99445 2.94524 2.9018 2.86526 2.83658 2.81632 2.80456 2.80082 2.80412 2.81308 2.82608 2.8414 2.85739 2.87252 2.88545 2.89503 2.9003 2.90049 2.895 2.88341 2.86541 2.8409 2.80992 2.7727 2.7297 2.68168 2.62974 2.57551 2.52124 2.47005 2.42612 2.39469 2.38138 2.39001 2.42021 2.46776 2.52725 2.59381 2.66362 2.73385 2.8024 2.86777 2.92887 2.9849 3.03531 3.07968 3.11775 3.14931 3.17423 3.19243 3.20386 3.20851 3.20637 3.19748 3.18189 3.15968 3.13095 3.09587 3.05466 3.00761 2.95516 2.89785 2.83649 2.77213 2.70621 2.64072 2.57825 2.52225 2.47699 2.44723 2.43722 2.44892 2.48102 2.52972 2.59044 2.65898 2.73192 2.80663 2.88117 2.95407 3.0243 3.09107 3.15385 3.21223 3.26595 3.31481 3.35868 3.39748 3.43113 3.45961 3.48288 3.50092 3.51372 3.52125 3.5235 3.52044 3.51203 3.49826 3.47908 3.45446 3.42436 3.38875 3.34763 3.30097 3.24882 3.19123 3.12833 3.06031 2.98747 2.91029 2.82943 2.74587 2.66099 2.57676 2.49598 2.42267 2.36262 2.32414 2.31674 2.34265 2.39359 2.46033 2.53621 2.6167 2.69871 2.78011 2.85945 2.93578 3.00849 3.07722 3.14182 3.20223 3.25855 3.31089 3.35947 3.4045 3.44624 3.48497 3.52094 3.55444 3.58571 3.61501 3.64256 3.66857 3.69321 3.71662 3.73895 3.76027 3.78067 3.8002 3.81888 3.83673 3.85374 3.86992 3.88524 3.89969 3.91326 3.92594 3.93773 3.94863 3.95867 3.96788 3.9763 3.98399 3.991 3.99743 4.00336 4.00889 4.01412 4.01917 4.02413 4.02913 4.03426 4.03964 4.04537 4.05151 4.05816 4.06538 4.0732 4.08168 4.09081 4.10063 4.1111 4.12221 4.13394 4.14623 4.15903 4.17229 4.18595 4.19993 4.21418 4.22861 4.24318 4.25781 4.27243 4.287 4.30146 4.31575 4.32984 4.34368 4.35724 4.37049 4.38339 4.39594 4.4081 4.41988 4.43125 4.44221 4.45276 4.4629 4.47262 4.48192 4.49083 4.49933 4.50744 4.51516 4.52251 4.5295 4.53614 4.54244 4.5484 4.55405 4.5594 4.56446 4.56923 4.57374
4.508 4.5031 4.49806 4.49289 4.48756 4.48209 4.47643 4.4706 4.46455 4.45828 4.45177 4.44498 4.43789 4.43047 4.42268 4.41449 4.40585 4.39672 4.38706 4.3768 4.3659 4.35429 4.34191 4.3287 4.31457 4.29946 4.28329 4.26597 4.24741 4.22753 4.20622 4.18338 4.15891 4.1327 4.10463 4.0746 4.04247 4.00812 3.97143 3.93225 3.89047 3.84593 3.7985 3.74806 3.69444 3.63754 3.57722 3.51336 3.44587 3.37466 3.2997 3.22099 3.13857 3.0526 2.96335 2.87124 2.77695 2.68145 2.58618 2.49325 2.40564 2.32773 2.26604 2.23137 2.23881 2.28145 2.34492 2.42103 2.50458 2.59204 2.68101 2.76984 2.85741 2.94297 3.02604 3.1063 3.18357 3.25776 3.32884 3.3968 3.46168 3.52354 3.58244 3.63845 3.69165 3.74211 3.78993 3.83518 3.87793 3.91828 3.95629 3.99204 4.0256 4.05705 4.08646 4.11388 4.13939 4.16304 4.18488 4.20498 4.22338 4.24013 4.25526 4.26883 4.28086 4.29138 4.30043 4.30803 4.3142 4.31896 4.32231 4.32427 4.32485 4.32404 4.32184 4.31825 4.31327 4.30686 4.29903 4.28975 4.27899 4.26674 4.25296 4.23762 4.22069 4.20213 4.1819 4.15996 4.13627 4.11079 4.08347 4.05428 4.02318 3.99012 3.95508 3.91803 3.87895 3.83784 3.79471 3.74959 3.70251 3.65357 3.60287 3.55057 3.49688 3.44206 3.38647 3.33051 3.27472 3.21971 3.1662 3.11503 3.06708 3.02331 2.98463 2.95186 2.92562 2.90626 2.89372 2.88758 2.88705 2.89103 2.89822 2.90722 2.91665 2.92518 2.9316 2.93485 2.93401 2.92832 2.91714 2.9 2.87655 2.8466 2.81009 2.76716 2.71815 2.66368 2.6047 2.54266 2.47967 2.41876 2.36432 2.32265 2.30228 2.31083 2.34726 2.40341 2.47139 2.54552 2.62186 2.69761 2.77082 2.8401 2.90447 2.96324 3.01591 3.06215 3.10172 3.13447 3.16029 3.17912 3.19092 3.19569 3.19343 3.18417 3.16793 3.14478 3.11481 3.07815 3.03495 2.98547 2.93007 2.86921 2.80359 2.73415 2.66223 2.58969 2.51913 2.45416 2.39977 2.36246 2.34919 2.3637 2.40324 2.46127 2.53135 2.60846 2.68895 2.7702 2.85035 2.92806 3.0024 3.07271 3.13853 3.19955 3.25556 3.30642 3.35205 3.3924 3.42744 3.45716 3.48157 3.50066 3.51443 3.52289 3.52604 3.52386 3.51635 3.50349 3.48526 3.46165 3.43264 3.39823 3.35842 3.31324 3.26276 3.20708 3.14637 3.08088 3.01101 2.9373 2.86054 2.78184 2.70273 2.62536 2.55269 2.48872 2.43867 2.40861 2.40357 2.42448 2.46735 2.52613 2.59519 2.67014 2.74778 2.8258 2.90259 2.97707 3.04851 3.11645 3.18063 3.24097 3.29745 3.35018 3.39928 3.44496 3.48742 3.52689 3.56361 3.59783 3.62977 3.65966 3.68771 3.71411 3.73903 3.76261 3.78497 3.80623 3.82647 3.84574 3.86408 3.88154 3.89813 3.91385 3.92871 3.94272 3.95587 3.96817 3.97963 3.99027 4.0001 4.00918 4.01752 4.0252 4.03227 4.03879 4.04487 4.05056 4.05598 4.06121 4.06635 4.07149 4.07673 4.08216 4.08785 4.0939 4.10035 4.10728 4.11471 4.12268 4.13122 4.14033 4.15 4.16022 4.17096 4.1822 4.19388 4.20597 4.2184 4.23114 4.2441 4.25725 4.27052 4.28386 4.29721 4.31052 4.32375 4.33684 4.34976 4.36247 4.37493 4.38713 4.39903 4.41061 4.42186 4.43277 4.44331 4.45349 4.4633 4.47273 4.48179 4.49048 4.4988 4.50675 4.51435 4.52159 4.52849 4.53506 4.5413 4.54723 4.55286 4.55819 4.56324 4.56802 4.57253 4.5768
4.51601 4.5113 4.50646 4.50148 4.49633 4.49102 4.48552 4.47982 4.4739 4.46775 4.46133 4.45462 4.4476 4.44023 4.43247 4.4243 4.41566 4.40653 4.39684 4.38654 4.37559 4.36392 4.35147 4.33818 4.32397 4.30877 4.2925 4.27508 4.25642 4.23644 4.21503 4.1921 4.16755 4.14127 4.11314 4.08305 4.05088 4.01651 3.97982 3.94066 3.89892 3.85446 3.80713 3.75682 3.70338 3.6467 3.58665 3.52312 3.45602 3.3853 3.31091 3.23288 3.1513 3.06634 2.97831 2.88771 2.79527 2.70207 2.6097 2.52041 2.43747 2.3655 2.31108 2.2826 2.28641 2.32013 2.37556 2.44516 2.52346 2.60669 2.69222 2.77822 2.86348 2.94713 3.02863 3.1076 3.18381 3.25714 3.32751 3.39492 3.45936 3.52087 3.57951 3.63532 3.68839 3.73877 3.78653 3.83176 3.87453 3.9149 3.95296 3.98877 4.0224 4.05393 4.08342 4.11093 4.13652 4.16026 4.18219 4.20238 4.22087 4.2377 4.25292 4.26657 4.27869 4.2893 4.29843 4.30611 4.31236 4.3172 4.32064 4.32269 4.32335 4.32264 4.32054 4.31707 4.31219 4.30592 4.29823 4.28911 4.27854 4.26649 4.25294 4.23787 4.22124 4.20302 4.18319 4.1617 4.13854 4.11365 4.08702 4.05861 4.02839 3.99635 3.96246 3.92672 3.88913 3.8497 3.80845 3.76545 3.72076 3.67448 3.62674 3.57772 3.52765 3.47678 3.42548 3.37414 3.32324 3.27334 3.22507 3.17912 3.13622 3.09709 3.06242 3.03279 3.00859 2.99 2.97691 2.96893 2.96539 2.96539 2.96787 2.97167 2.97562 2.97858 2.97947 2.97732 2.97127 2.96057 2.94462 2.9229 2.89505 2.86082 2.8201 2.77297 2.71968 2.66074 2.59702 2.52979 2.46099 2.39339 2.33109 2.28018 2.25082 2.25993 2.30402 2.36727 2.441 2.51975 2.59982 2.67862 2.75433 2.82567 2.89174 2.9519 3.00571 3.05286 3.09315 3.12644 3.15265 3.17171 3.18361 3.18833 3.18588 3.17627 3.15953 3.13571 3.10488 3.06713 3.02261 2.97151 2.91414 2.85091 2.78241 2.7095 2.63337 2.55572 2.47895 2.40652 2.34343 2.29723 2.27911 2.29779 2.34631 2.41343 2.49143 2.5752 2.66125 2.74715 2.83121 2.91222 2.98938 3.06211 3.13002 3.19286 3.25048 3.30276 3.34968 3.39119 3.42731 3.45804 3.48341 3.50343 3.51813 3.52752 3.53162 3.53043 3.52396 3.51221 3.4952 3.47291 3.44538 3.41261 3.37465 3.33156 3.28346 3.23049 3.1729 3.11102 3.04531 2.97642 2.90526 2.83303 2.76138 2.69249 2.62919 2.57504 2.53416 2.51061 2.50731 2.52471 2.56061 2.61115 2.67214 2.73984 2.81125 2.88408 2.95663 3.0277 3.09644 3.16231 3.22494 3.28415 3.33988 3.39214 3.44102 3.48665 3.52921 3.56887 3.60586 3.64036 3.67259 3.70274 3.73101 3.75757 3.78258 3.80617 3.82848 3.84961 3.86963 3.88863 3.90665 3.92374 3.93993 3.95524 3.96969 3.9833 3.99608 4.00804 4.0192 4.02958 4.03922 4.04815 4.0564 4.06404 4.07112 4.0777 4.08386 4.08967 4.0952 4.10055 4.1058 4.11103 4.11632 4.12175 4.12738 4.1333 4.13955 4.14619 4.15325 4.16076 4.16875 4.17721 4.18616 4.19557 4.20544 4.21573 4.22641 4.23744 4.24878 4.26038 4.2722 4.28418 4.29628 4.30844 4.32063 4.33279 4.34488 4.35687 4.36871 4.38037 4.39183 4.40305 4.41401 4.4247 4.43509 4.44517 4.45494 4.46438 4.47348 4.48225 4.49069 4.49878 4.50654 4.51397 4.52108 4.52786 4.53433 4.54049 4.54635 4.55193 4.55722 4.56224 4.567 4.57151 4.57578 4.57981
4.5234 4.51888 4.51422 4.5094 4.50442 4.49925 4.49389 4.48832 4.48252 4.47647 4.47014 4.46351 4.45655 4.44923 4.44152 4.43337 4.42475 4.41561 4.40591 4.3956 4.38462 4.37291 4.36041 4.34707 4.3328 4.31754 4.30122 4.28374 4.26503 4.24499 4.22354 4.20057 4.17599 4.14969 4.12157 4.0915 4.05938 4.02508 3.98848 3.94945 3.90788 3.86362 3.81656 3.76656 3.71351 3.65728 3.59778 3.5349 3.46859 3.39879 3.32552 3.24882 3.16884 3.0858 3.0001 2.91231 2.82328 2.73423 2.64688 2.56364 2.48779 2.42368 2.37664 2.35206 2.35312 2.37879 2.42455 2.48496 2.55524 2.63169 2.71157 2.79291 2.87432 2.95483 3.03376 3.11064 3.18517 3.25714 3.32644 3.393 3.45678 3.5178 3.57607 3.63162 3.6845 3.73477 3.78249 3.82771 3.8705 3.91092 3.94905 3.98495 4.01868 4.05032 4.07991 4.10754 4.13325 4.1571 4.17915 4.19945 4.21805 4.23499 4.25032 4.26407 4.27629 4.28699 4.29622 4.304 4.31035 4.31528 4.31881 4.32096 4.32172 4.32111 4.31912 4.31576 4.31101 4.30487 4.29733 4.28837 4.27798 4.26614 4.25282 4.23801 4.22168 4.20381 4.18437 4.16334 4.14069 4.1164 4.09044 4.0628 4.03346 4.00242 3.96967 3.93522 3.89908 3.8613 3.8219 3.78097 3.7386 3.69489 3.65 3.60411 3.55745 3.51031 3.463 3.4159 3.36946 3.32416 3.28054 3.23917 3.20063 3.16548 3.1342 3.10721 3.08476 3.0669 3.05348 3.04414 3.0383 3.0352 3.03396 3.03361 3.03314 3.03157 3.02795 3.0214 3.01113 2.99645 2.97677 2.95159 2.92054 2.88337 2.83997 2.79038 2.73485 2.67388 2.6083 2.53939 2.46905 2.40006 2.33651 2.28451 2.25424 2.26251 2.30588 2.3686 2.44193 2.52037 2.60019 2.6788 2.75435 2.82555 2.89149 2.95152 3.00521 3.05223 3.09238 3.12553 3.15157 3.17045 3.18215 3.18665 3.18394 3.17405 3.15699 3.13281 3.10156 3.06332 3.01824 2.96648 2.90834 2.8442 2.77462 2.70041 2.62269 2.54308 2.46387 2.38832 2.32112 2.26925 2.24487 2.2693 2.32397 2.39563 2.47712 2.56368 2.65201 2.73982 2.82548 2.90789 2.98626 3.06006 3.12893 3.19266 3.25109 3.30415 3.35181 3.39405 3.4309 3.46237 3.48849 3.50931 3.52484 3.53513 3.54019 3.54005 3.53475 3.52429 3.5087 3.48801 3.46227 3.43153 3.39586 3.35537 3.31022 3.26062 3.20687 3.14938 3.08868 3.0255 2.96083 2.89591 2.83239 2.77233 2.71826 2.67308 2.63986 2.62138 2.61942 2.63425 2.66453 2.70773 2.76085 2.82093 2.88536 2.95204 3.0193 3.08591 3.15094 3.21375 3.27392 3.33117 3.38536 3.43644 3.48443 3.52943 3.57154 3.61092 3.64772 3.68212 3.71429 3.74441 3.77264 3.79915 3.82407 3.84755 3.86969 3.8906 3.91036 3.92906 3.94675 3.96348 3.9793 3.99423 4.0083 4.02154 4.03397 4.04561 4.05649 4.06664 4.07608 4.08486 4.09301 4.10059 4.10765 4.11425 4.12044 4.12631 4.13191 4.13733 4.14264 4.1479 4.1532 4.15859 4.16414 4.16991 4.17596 4.18231 4.18902 4.1961 4.20358 4.21146 4.21975 4.22844 4.23751 4.24695 4.25672 4.26681 4.27716 4.28774 4.29852 4.30945 4.32048 4.33158 4.34271 4.35382 4.36488 4.37585 4.38669 4.39739 4.40791 4.41823 4.42832 4.43817 4.44776 4.45707 4.46611 4.47485 4.48329 4.49144 4.49928 4.50681 4.51404 4.52097 4.52761 4.53395 4.54 4.54578 4.55127 4.55651 4.56148 4.5662 4.57068 4.57493 4.57896 4.58276
4.53022 4.52587 4.52137 4.51671 4.51187 4.50685 4.50162 4.49616 4.49047 4.48452 4.47828 4.47172 4.46483 4.45756 4.44989 4.44177 4.43317 4.42405 4.41435 4.40403 4.39304 4.38131 4.3688 4.35543 4.34113 4.32585 4.30949 4.29199 4.27326 4.25321 4.23176 4.20881 4.18425 4.158 4.12994 4.09996 4.06796 4.03381 3.99739 3.9586 3.9173 3.87338 3.82672 3.7772 3.72471 3.66916 3.61045 3.54851 3.4833 3.41481 3.34309 3.26824 3.19044 3.11001 3.02741 2.94332 2.85868 2.7748 2.69348 2.61706 2.54857 2.49168 2.45034 2.42804 2.42668 2.44575 2.4826 2.53357 2.5949 2.66335 2.73633 2.81182 2.88835 2.96483 3.04044 3.11464 3.187 3.25725 3.32519 3.39069 3.45367 3.51408 3.57191 3.62717 3.67986 3.73002 3.7777 3.82293 3.86577 3.90628 3.94452 3.98054 4.0144 4.04618 4.07592 4.10369 4.12954 4.15354 4.17573 4.19617 4.2149 4.23197 4.24743 4.2613 4.27364 4.28446 4.2938 4.30169 4.30814 4.31317 4.31681 4.31906 4.31993 4.31943 4.31755 4.3143 4.30968 4.30367 4.29628 4.28748 4.27726 4.26562 4.25253 4.23798 4.22194 4.2044 4.18534 4.16474 4.14259 4.11886 4.09355 4.06665 4.03816 4.00807 3.97641 3.94319 3.90845 3.87223 3.83459 3.79563 3.75544 3.71415 3.67192 3.62896 3.58547 3.54175 3.49808 3.45483 3.41238 3.37116 3.33163 3.29424 3.25946 3.22771 3.19934 3.17462 3.15371 3.13657 3.12304 3.11278 3.10526 3.09984 3.09577 3.09222 3.08833 3.08324 3.07613 3.0662 3.05275 3.03514 3.01282 2.98534 2.95236 2.91366 2.86915 2.81891 2.76325 2.70271 2.63821 2.57115 2.5036 2.43855 2.3804 2.33544 2.31222 2.31835 2.35281 2.40741 2.47419 2.5474 2.623 2.69817 2.77089 2.83974 2.90372 2.96211 3.01441 3.06026 3.09942 3.13172 3.15706 3.17535 3.18656 3.19066 3.18766 3.17755 3.16036 3.13613 3.10492 3.06683 3.02199 2.97061 2.91297 2.84949 2.78077 2.70765 2.63131 2.55346 2.4765 2.40386 2.34057 2.29415 2.27603 2.29526 2.34457 2.41246 2.4912 2.57569 2.66245 2.74904 2.83378 2.91549 2.99335 3.0668 3.13546 3.19908 3.25751 3.31066 3.3585 3.40101 3.43821 3.47012 3.49678 3.51822 3.53448 3.5456 3.55163 3.55259 3.54852 3.53947 3.52549 3.50661 3.48292 3.4545 3.42147 3.38396 3.34219 3.29642 3.24699 3.19438 3.13919 3.08218 3.02435 2.96694 2.9115 2.85988 2.81419 2.77676 2.74983 2.73534 2.73445 2.74733 2.77313 2.81013 2.85618 2.909 2.96646 3.02671 3.08822 3.14978 3.21046 3.26957 3.32661 3.38126 3.43331 3.48264 3.52922 3.57308 3.6143 3.65296 3.6892 3.72315 3.75497 3.78478 3.81275 3.83901 3.86368 3.8869 3.90877 3.92939 3.94885 3.96721 3.98455 4.00092 4.01637 4.03093 4.04464 4.05754 4.06964 4.08099 4.0916 4.10152 4.11077 4.11939 4.12743 4.13493 4.14194 4.14852 4.15472 4.1606 4.16623 4.17168 4.177 4.18226 4.18752 4.19285 4.1983 4.20391 4.20974 4.21583 4.2222 4.22888 4.23589 4.24324 4.25093 4.25896 4.26732 4.27599 4.28495 4.29418 4.30364 4.31331 4.32315 4.33312 4.34319 4.35332 4.36348 4.37364 4.38375 4.39379 4.40372 4.41353 4.42319 4.43266 4.44195 4.45102 4.45986 4.46846 4.47681 4.48489 4.49272 4.50027 4.50755 4.51455 4.52128 4.52774 4.53393 4.53985 4.5455 4.5509 4.55605 4.56096 4.56563 4.57006 4.57427 4.57827 4.58206 4.58565
4.53652 4.53233 4.52797 4.52345 4.51875 4.51385 4.50874 4.5034 4.4978 4.49194 4.48578 4.4793 4.47247 4.46526 4.45764 4.44956 4.44099 4.43189 4.42221 4.4119 4.40091 4.38918 4.37667 4.36329 4.349 4.33371 4.31736 4.29987 4.28116 4.26115 4.23974 4.21684 4.19236 4.16621 4.13827 4.10844 4.07662 4.04269 4.00655 3.96807 3.92715 3.88367 3.83753 3.78863 3.73685 3.68214 3.62441 3.56362 3.49976 3.43286 3.36299 3.29032 3.21509 3.13768 3.05861 2.97863 2.89874 2.82029 2.74501 2.67506 2.61307 2.56196 2.52464 2.5035 2.49981 2.51334 2.54247 2.58474 2.63734 2.69762 2.76329 2.83243 2.90356 2.97551 3.0474 3.11855 3.18848 3.25678 3.32321 3.38754 3.44965 3.50942 3.56681 3.62177 3.67429 3.72438 3.77205 3.81734 3.86028 3.90092 3.9393 3.97549 4.00953 4.04148 4.07141 4.09936 4.12539 4.14956 4.17192 4.19252 4.21141 4.22863 4.24423 4.25825 4.27072 4.28167 4.29114 4.29914 4.30571 4.31086 4.31461 4.31697 4.31795 4.31756 4.3158 4.31266 4.30816 4.30229 4.29503 4.28639 4.27634 4.26489 4.25201 4.23769 4.22192 4.20469 4.18598 4.16578 4.14408 4.12088 4.09617 4.06996 4.04224 4.01305 3.9824 3.95032 3.91687 3.8821 3.84609 3.80894 3.77076 3.73169 3.69191 3.6516 3.61099 3.57035 3.52995 3.49011 3.4512 3.41356 3.37759 3.34366 3.31212 3.28329 3.25743 3.23472 3.2152 3.19883 3.1854 3.17459 3.16594 3.15889 3.15279 3.14691 3.14052 3.13287 3.12324 3.11093 3.0953 3.0758 3.05192 3.02329 2.98961 2.95072 2.90658 2.85737 2.80344 2.74547 2.68449 2.62204 2.56031 2.50238 2.4524 2.41563 2.3977 2.40244 2.42947 2.47451 2.53203 2.59704 2.66563 2.73486 2.80258 2.86722 2.92765 2.98305 3.03282 3.07655 3.11392 3.14474 3.16885 3.18616 3.19661 3.20016 3.19681 3.18654 3.16941 3.14544 3.11472 3.07737 3.03355 2.98351 2.92757 2.86623 2.80017 2.73032 2.65801 2.58511 2.51422 2.44897 2.39438 2.35704 2.3441 2.35942 2.40013 2.45949 2.53094 2.60943 2.6913 2.77391 2.85543 2.93452 3.01026 3.08201 3.14931 3.21188 3.26952 3.32211 3.36958 3.41191 3.4491 3.48116 3.50811 3.53001 3.54688 3.55877 3.56572 3.56779 3.56502 3.55747 3.5452 3.52829 3.50684 3.48096 3.45079 3.41653 3.3784 3.33673 3.29191 3.24442 3.19491 3.14416 3.09313 3.043 2.99515 2.95119 2.91287 2.88197 2.86019 2.84889 2.84887 2.86026 2.88246 2.91431 2.95424 3.00051 3.05142 3.10541 3.16113 3.21744 3.27347 3.32849 3.382 3.43362 3.48308 3.53023 3.57499 3.61732 3.65727 3.69488 3.73024 3.76346 3.79465 3.82393 3.85143 3.87727 3.90155 3.92439 3.94589 3.96615 3.98524 4.00323 4.0202 4.0362 4.05128 4.06548 4.07884 4.0914 4.10319 4.11425 4.12461 4.1343 4.14336 4.15182 4.15973 4.16714 4.17408 4.18061 4.18678 4.19265 4.19828 4.20371 4.20902 4.21424 4.21945 4.2247 4.23002 4.23547 4.24109 4.24691 4.25296 4.25927 4.26585 4.27271 4.27986 4.2873 4.29501 4.30299 4.31121 4.31967 4.32833 4.33717 4.34616 4.35526 4.36446 4.37372 4.383 4.39228 4.40152 4.41071 4.41981 4.4288 4.43766 4.44636 4.4549 4.46324 4.47139 4.47932 4.48703 4.49451 4.50175 4.50874 4.51549 4.522 4.52825 4.53426 4.54002 4.54554 4.55082 4.55587 4.56069 4.56528 4.56965 4.57381 4.57776 4.58152 4.58508 4.58846
4.54234 4.53828 4.53406 4.52967 4.52509 4.52031 4.51531 4.51007 4.50457 4.4988 4.49272 4.48631 4.47955 4.47239 4.46482 4.45678 4.44825 4.43918 4.42953 4.41924 4.40827 4.39657 4.38407 4.37072 4.35645 4.34119 4.32487 4.30742 4.28876 4.26881 4.24748 4.22468 4.20032 4.17431 4.14654 4.11692 4.08534 4.0517 4.01589 3.97781 3.93734 3.89439 3.84887 3.80067 3.74973 3.69597 3.63935 3.57986 3.5175 3.45234 3.3845 3.31417 3.24166 3.16739 3.09193 3.01605 2.94079 2.86742 2.79756 2.73314 2.67634 2.62949 2.59476 2.57391 2.56785 2.57656 2.59904 2.6336 2.67821 2.73077 2.78931 2.85214 2.9178 2.98514 3.0532 3.12122 3.18864 3.25497 3.31986 3.38305 3.44431 3.50349 3.56048 3.61521 3.66762 3.7177 3.76544 3.81085 3.85395 3.89477 3.93337 3.96977 4.00403 4.03621 4.06635 4.09452 4.12077 4.14514 4.1677 4.18849 4.20756 4.22496 4.24073 4.2549 4.26752 4.27862 4.28822 4.29636 4.30306 4.30833 4.3122 4.31467 4.31576 4.31548 4.31383 4.31082 4.30643 4.30068 4.29356 4.28505 4.27516 4.26387 4.25118 4.23707 4.22154 4.20458 4.18618 4.16634 4.14505 4.12231 4.09814 4.07253 4.04552 4.01712 3.98737 3.95632 3.92402 3.89055 3.856 3.82048 3.7841 3.74702 3.70941 3.67147 3.63341 3.59549 3.55796 3.52113 3.48529 3.45077 3.41788 3.38693 3.35819 3.3319 3.30824 3.28731 3.26912 3.25357 3.24045 3.22946 3.22018 3.21211 3.20467 3.19726 3.18921 3.17988 3.16864 3.15487 3.13802 3.1176 3.0932 3.06447 3.03121 2.99331 2.95083 2.904 2.85329 2.79947 2.74364 2.68742 2.63296 2.58309 2.54134 2.51161 2.49753 2.50129 2.52272 2.55937 2.60758 2.66352 2.72381 2.78569 2.847 2.90612 2.96182 3.01316 3.05949 3.1003 3.13522 3.164 3.18644 3.20243 3.21188 3.21473 3.21097 3.20061 3.18368 3.16024 3.1304 3.0943 3.05216 3.00427 2.95103 2.89302 2.83101 2.76606 2.69962 2.63367 2.57084 2.51459 2.46927 2.43975 2.43038 2.44319 2.47679 2.52725 2.58986 2.66037 2.7353 2.81203 2.8886 2.96357 3.03588 3.10481 3.16981 3.23051 3.28666 3.33809 3.3847 3.42644 3.46327 3.4952 3.52224 3.54443 3.56178 3.57435 3.5822 3.58536 3.5839 3.5779 3.56743 3.55258 3.53348 3.51026 3.48311 3.45222 3.41789 3.38044 3.34029 3.29795 3.25407 3.2094 3.16485 3.1215 3.08056 3.04339 3.0114 2.98599 2.96843 2.95971 2.96041 2.97062 2.98994 3.01754 3.05225 3.09278 3.13775 3.1859 3.23605 3.2872 3.33851 3.38932 3.43909 3.48742 3.53402 3.57869 3.62132 3.66183 3.70022 3.7365 3.77073 3.80298 3.83334 3.8619 3.88876 3.91402 3.93778 3.96014 3.98119 4.00101 4.01968 4.03726 4.05383 4.06945 4.08415 4.09799 4.111 4.12324 4.13473 4.14551 4.15561 4.16508 4.17394 4.18224 4.19002 4.19731 4.20417 4.21063 4.21675 4.22258 4.22817 4.23357 4.23883 4.244 4.24913 4.25427 4.25946 4.26474 4.27015 4.27572 4.28147 4.28743 4.29361 4.30003 4.30668 4.31357 4.3207 4.32805 4.33562 4.34337 4.35131 4.3594 4.36762 4.37595 4.38435 4.39281 4.4013 4.40978 4.41824 4.42664 4.43498 4.44322 4.45134 4.45933 4.46718 4.47485 4.48235 4.48966 4.49678 4.50368 4.51037 4.51685 4.5231 4.52914 4.53494 4.54053 4.54589 4.55103 4.55595 4.56066 4.56516 4.56945 4.57354 4.57744 4.58115 4.58467 4.58802 4.59119
4.5477 4.54378 4.53968 4.53541 4.53094 4.52627 4.52137 4.51623 4.51082 4.50513 4.49913 4.49279 4.48609 4.479 4.47148 4.46349 4.45501 4.44598 4.43636 4.42611 4.41518 4.40351 4.39105 4.37773 4.36351 4.3483 4.33204 4.31466 4.29608 4.27623 4.25501 4.23234 4.20814 4.18231 4.15476 4.12539 4.0941 4.06079 4.02537 3.98773 3.94778 3.90543 3.86058 3.81317 3.76312 3.71039 3.65495 3.59681 3.53601 3.47264 3.40685 3.33886 3.26902 3.19777 3.12571 3.05361 2.98246 2.91347 2.84809 2.78799 2.73501 2.69099 2.65765 2.63633 2.6278 2.63215 2.6488 2.67662 2.71411 2.75966 2.81164 2.86855 2.92906 2.992 3.0564 3.12147 3.18651 3.25101 3.31451 3.37668 3.43722 3.49594 3.55266 3.60728 3.6597 3.70987 3.75776 3.80338 3.84671 3.8878 3.92666 3.96334 3.99788 4.03033 4.06074 4.08916 4.11566 4.14027 4.16305 4.18406 4.20334 4.22094 4.23689 4.25124 4.26403 4.27529 4.28504 4.29332 4.30015 4.30556 4.30955 4.31214 4.31335 4.31318 4.31164 4.30874 4.30446 4.29882 4.29181 4.28343 4.27367 4.26253 4.25 4.23607 4.22074 4.204 4.18586 4.16632 4.14536 4.12302 4.09929 4.07421 4.04779 4.02007 3.99109 3.96092 3.92962 3.89728 3.86399 3.82987 3.79505 3.7597 3.72398 3.68808 3.65223 3.61666 3.58161 3.54736 3.51418 3.48233 3.45209 3.42371 3.3974 3.37333 3.35163 3.33234 3.31542 3.30077 3.28817 3.27733 3.26786 3.25932 3.25119 3.24294 3.234 3.22379 3.21176 3.19739 3.18019 3.15975 3.13571 3.10782 3.07593 3.04002 3.0002 2.95678 2.91032 2.86161 2.8118 2.76244 2.71551 2.67343 2.63898 2.61498 2.60383 2.60688 2.62405 2.65383 2.69376 2.74103 2.7929 2.84697 2.90125 2.95412 3.00434 3.05093 3.09316 3.13046 3.16241 3.18871 3.20913 3.22351 3.23174 3.23377 3.22956 3.21912 3.20251 3.1798 3.15113 3.11667 3.0767 3.03155 2.98172 2.92784 2.87078 2.81167 2.75202 2.69378 2.63942 2.59196 2.55484 2.53153 2.5248 2.53587 2.56398 2.60671 2.66082 2.72298 2.79024 2.86015 2.93078 3.00065 3.06865 3.13393 3.19589 3.25409 3.30819 3.358 3.40334 3.44414 3.48033 3.51189 3.53882 3.56114 3.57886 3.59204 3.60071 3.60494 3.6048 3.60035 3.59171 3.57897 3.56227 3.54178 3.51768 3.49022 3.45969 3.42643 3.39089 3.35357 3.31508 3.27616 3.23763 3.20044 3.16566 3.13441 3.10782 3.08701 3.07293 3.06632 3.06763 3.07691 3.0939 3.11797 3.14829 3.18384 3.22355 3.26639 3.31136 3.35759 3.40433 3.45095 3.49692 3.54186 3.58546 3.62748 3.66778 3.70627 3.7429 3.77766 3.81056 3.84166 3.87101 3.89868 3.92476 3.94932 3.97246 3.99424 4.01476 4.03408 4.05228 4.06942 4.08557 4.10078 4.1151 4.12857 4.14124 4.15316 4.16435 4.17485 4.18471 4.19395 4.20262 4.21075 4.21838 4.22555 4.2323 4.23869 4.24474 4.25051 4.25604 4.26138 4.26657 4.27167 4.2767 4.28173 4.28678 4.29189 4.29709 4.30241 4.30788 4.31351 4.31932 4.32533 4.33153 4.33793 4.34453 4.35131 4.35827 4.36541 4.37269 4.3801 4.38763 4.39525 4.40293 4.41067 4.41843 4.42619 4.43392 4.44162 4.44925 4.4568 4.46425 4.47159 4.47879 4.48585 4.49275 4.49948 4.50604 4.51242 4.5186 4.52459 4.53038 4.53597 4.54135 4.54654 4.55152 4.5563 4.56089 4.56527 4.56947 4.57348 4.5773 4.58095 4.58442 4.58772 4.59086 4.59384
4.55265 4.54885 4.54486 4.5407 4.53634 4.53177 4.52696 4.52191 4.51659 4.51098 4.50506 4.49879 4.49216 4.48513 4.47766 4.46973 4.46129 4.45231 4.44275 4.43254 4.42166 4.41004 4.39763 4.38437 4.37021 4.35507 4.3389 4.32161 4.30314 4.2834 4.26233 4.23983 4.21582 4.1902 4.1629 4.13382 4.10285 4.06992 4.03492 3.99777 3.95837 3.91665 3.87252 3.82592 3.77679 3.72511 3.67087 3.61408 3.55481 3.49316 3.42932 3.36353 3.29614 3.2276 3.15852 3.08963 3.02188 2.95636 2.89437 2.83735 2.78684 2.74438 2.71136 2.6889 2.6777 2.67797 2.6894 2.71126 2.7425 2.78186 2.828 2.87963 2.93552 2.99454 3.05571 3.11817 3.18119 3.24415 3.30655 3.36795 3.42801 3.48647 3.54312 3.59778 3.65036 3.70076 3.74893 3.79486 3.83853 3.87995 3.91916 3.95618 3.99105 4.02382 4.05454 4.08327 4.11005 4.13493 4.15798 4.17923 4.19874 4.21655 4.23271 4.24726 4.26023 4.27166 4.28158 4.29002 4.297 4.30254 4.30666 4.30937 4.3107 4.31064 4.3092 4.3064 4.30223 4.29669 4.28978 4.2815 4.27185 4.26082 4.24841 4.23462 4.21944 4.20288 4.18494 4.16562 4.14493 4.12289 4.09952 4.07484 4.04889 4.02171 3.99336 3.9639 3.93341 3.90199 3.86974 3.83679 3.80327 3.76935 3.73521 3.70103 3.66703 3.63344 3.60049 3.56842 3.53748 3.50791 3.47993 3.45376 3.42955 3.40744 3.3875 3.36974 3.3541 3.34044 3.32856 3.31817 3.30892 3.3004 3.29216 3.28371 3.27455 3.26418 3.25212 3.2379 3.22113 3.20144 3.17856 3.1523 3.12256 3.08938 3.05295 3.01364 2.97201 2.92889 2.88537 2.84285 2.80307 2.768 2.73977 2.72042 2.71157 2.71412 2.72801 2.75226 2.78517 2.8247 2.8687 2.91517 2.96235 3.00876 3.05318 3.09465 3.13238 3.1658 3.19443 3.21794 3.23605 3.2486 3.25545 3.25653 3.25181 3.24131 3.22507 3.20321 3.17589 3.14332 3.10582 3.06378 3.01775 2.96841 2.91669 2.86374 2.81103 2.76039 2.71399 2.67434 2.64407 2.62567 2.62099 2.63082 2.65471 2.6911 2.73775 2.79214 2.85187 2.9148 2.97916 3.04351 3.1067 3.16786 3.22632 3.28158 3.33325 3.38107 3.42485 3.46444 3.49977 3.53077 3.55744 3.57976 3.59775 3.61145 3.6209 3.62616 3.6273 3.6244 3.61758 3.60694 3.59265 3.57487 3.55381 3.52972 3.50291 3.47374 3.44262 3.41006 3.37664 3.34303 3.30997 3.27831 3.24895 3.22281 3.20083 3.18387 3.17268 3.16783 3.16964 3.17819 3.19327 3.21443 3.24104 3.27232 3.30743 3.34552 3.38578 3.42744 3.46985 3.51242 3.55469 3.59625 3.63679 3.67609 3.71397 3.75031 3.78505 3.81814 3.84958 3.87939 3.9076 3.93427 3.95946 3.98322 4.00564 4.02677 4.04669 4.06546 4.08315 4.09982 4.11552 4.13031 4.14423 4.15733 4.16966 4.18125 4.19214 4.20237 4.21198 4.221 4.22947 4.23743 4.24491 4.25195 4.25859 4.26487 4.27084 4.27653 4.28198 4.28725 4.29236 4.29737 4.3023 4.3072 4.3121 4.31704 4.32204 4.32713 4.33233 4.33765 4.34313 4.34875 4.35454 4.36049 4.36661 4.37288 4.3793 4.38586 4.39255 4.39935 4.40625 4.41323 4.42027 4.42734 4.43444 4.44154 4.44862 4.45567 4.46266 4.46958 4.47641 4.48314 4.48976 4.49625 4.50259 4.50879 4.51484 4.52071 4.52642 4.53195 4.53731 4.54248 4.54748 4.55228 4.55691 4.56135 4.56562 4.56971 4.57362 4.57735 4.58092 4.58433 4.58758 4.59067 4.59361 4.5964
4.55722 4.55352 4.54965 4.54558 4.54132 4.53684 4.53213 4.52716 4.52192 4.51639 4.51054 4.50435 4.49778 4.49081 4.48341 4.47553 4.46716 4.45823 4.44872 4.43858 4.42775 4.41619 4.40385 4.39067 4.37659 4.36154 4.34546 4.32829 4.30995 4.29036 4.26945 4.24713 4.22334 4.19797 4.17094 4.14217 4.11156 4.07903 4.04448 4.00784 3.96902 3.92794 3.88453 3.83874 3.79053 3.73988 3.68678 3.63127 3.57343 3.51337 3.45129 3.38743 3.32215 3.25589 3.18923 3.12287 3.05767 2.99463 2.9349 2.87973 2.83046 2.7884 2.75475 2.7305 2.71636 2.71263 2.71926 2.73581 2.76154 2.7955 2.8366 2.88371 2.93568 2.99143 3.04997 3.11038 3.17187 3.23375 3.29544 3.35644 3.41635 3.47483 3.53165 3.58659 3.6395 3.69029 3.73889 3.78525 3.82936 3.87122 3.91085 3.94827 3.98354 4.01669 4.04777 4.07683 4.10393 4.12912 4.15246 4.17398 4.19375 4.2118 4.22819 4.24295 4.25612 4.26774 4.27783 4.28643 4.29357 4.29925 4.3035 4.30634 4.30778 4.30783 4.3065 4.30379 4.29971 4.29425 4.28742 4.27922 4.26965 4.2587 4.24637 4.23267 4.2176 4.20115 4.18334 4.16417 4.14366 4.12182 4.09869 4.0743 4.04868 4.02189 3.994 3.96507 3.93519 3.90447 3.87301 3.84096 3.80846 3.77568 3.74279 3.70999 3.67748 3.6455 3.61425 3.58398 3.5549 3.52723 3.50117 3.47688 3.4545 3.43413 3.4158 3.3995 3.38515 3.3726 3.36164 3.35199 3.34333 3.33529 3.32744 3.31936 3.3106 3.30071 3.28927 3.27589 3.26022 3.24195 3.22088 3.19687 3.16988 3.14 3.10746 3.07264 3.03612 2.99867 2.96131 2.92527 2.89199 2.86305 2.84006 2.82451 2.81754 2.81974 2.83108 2.85089 2.87798 2.91082 2.94778 2.98722 3.02764 3.06773 3.10636 3.1426 3.17569 3.20503 3.23014 3.25065 3.26629 3.27684 3.28217 3.2822 3.27689 3.26628 3.25043 3.22946 3.20356 3.17298 3.13806 3.09926 3.05713 3.01241 2.96601 2.91907 2.87296 2.8293 2.78996 2.75696 2.73231 2.71782 2.71476 2.7237 2.74435 2.77566 2.81604 2.86361 2.91646 2.97279 3.03103 3.08984 3.14811 3.20498 3.25973 3.31183 3.36085 3.40649 3.4485 3.48671 3.52102 3.55133 3.57761 3.59984 3.61802 3.63218 3.64235 3.64859 3.65098 3.6496 3.64456 3.63599 3.62405 3.60892 3.59082 3.57 3.54677 3.52148 3.49454 3.46643 3.43768 3.4089 3.38077 3.354 3.32937 3.30764 3.28957 3.27586 3.26708 3.2637 3.26595 3.27391 3.28742 3.30617 3.32965 3.35728 3.38839 3.42229 3.45831 3.4958 3.53419 3.57296 3.61166 3.64994 3.68749 3.72406 3.75949 3.79363 3.8264 3.85774 3.88763 3.91606 3.94305 3.96863 3.99284 4.01573 4.03736 4.05778 4.07705 4.09523 4.11238 4.12854 4.14378 4.15813 4.17165 4.18437 4.19635 4.20762 4.21821 4.22817 4.23753 4.24633 4.2546 4.26238 4.2697 4.2766 4.28312 4.28929 4.29516 4.30076 4.30613 4.3113 4.31632 4.32123 4.32605 4.33082 4.33557 4.34034 4.34514 4.35 4.35495 4.36 4.36515 4.37043 4.37584 4.38138 4.38706 4.39286 4.39879 4.40484 4.41099 4.41724 4.42357 4.42997 4.43642 4.4429 4.4494 4.4559 4.46238 4.46883 4.47524 4.48158 4.48785 4.49402 4.5001 4.50606 4.51189 4.5176 4.52316 4.52858 4.53385 4.53896 4.5439 4.54869 4.55331 4.55777 4.56206 4.56619 4.57015 4.57395 4.57759 4.58108 4.5844 4.58758 4.59062 4.5935 4.59625 4.59887
4.56144 4.55784 4.55406 4.55009 4.54592 4.54153 4.5369 4.53201 4.52685 4.5214 4.51562 4.50949 4.50299 4.49609 4.48875 4.48094 4.47263 4.46376 4.45432 4.44424 4.43348 4.422 4.40974 4.39664 4.38265 4.36771 4.35175 4.33471 4.31651 4.29709 4.27636 4.25426 4.2307 4.20559 4.17886 4.15042 4.12019 4.08807 4.05399 4.01786 3.97962 3.93918 3.89648 3.85148 3.80415 3.75446 3.70242 3.64808 3.59151 3.53283 3.47225 3.40999 3.3464 3.28191 3.21704 3.15246 3.08893 3.02737 2.9688 2.91433 2.86514 2.82241 2.78722 2.76054 2.74309 2.73533 2.73739 2.74909 2.76994 2.79925 2.83611 2.8795 2.92837 2.98164 3.03828 3.09734 3.15794 3.21931 3.28081 3.34186 3.402 3.46086 3.51814 3.5736 3.62708 3.67844 3.72761 3.77454 3.8192 3.86159 3.90172 3.93963 3.97535 4.00893 4.04042 4.06986 4.09732 4.12284 4.14649 4.16831 4.18836 4.20668 4.22331 4.2383 4.25169 4.26351 4.27379 4.28257 4.28986 4.29569 4.30009 4.30305 4.30461 4.30476 4.30352 4.30089 4.29688 4.29149 4.28473 4.27658 4.26705 4.25615 4.24386 4.2302 4.21517 4.19877 4.18101 4.16191 4.14148 4.11974 4.09673 4.07249 4.04706 4.02049 3.99287 3.96427 3.93478 3.90452 3.8736 3.84218 3.81039 3.77842 3.74645 3.71468 3.6833 3.65255 3.62264 3.59379 3.56621 3.54009 3.51562 3.49293 3.47215 3.45333 3.4365 3.42162 3.40859 3.39726 3.38741 3.37878 3.37107 3.36391 3.35693 3.34973 3.34192 3.33308 3.32285 3.31089 3.29689 3.28062 3.26189 3.24063 3.21683 3.19062 3.16224 3.13209 3.1007 3.0688 3.03728 3.00718 2.97969 2.95605 2.93749 2.9251 2.91968 2.92167 2.93102 2.94727 2.96955 2.99672 3.02753 3.06066 3.09486 3.12899 3.16205 3.19318 3.22166 3.24689 3.2684 3.28582 3.29886 3.3073 3.31101 3.30989 3.30392 3.29314 3.27761 3.25748 3.23297 3.20433 3.17196 3.13631 3.09797 3.05767 3.01629 2.97491 2.93476 2.89727 2.86399 2.83654 2.81646 2.8051 2.80337 2.81168 2.82984 2.85713 2.89238 2.93418 2.98101 3.03139 3.08397 3.13754 3.19107 3.24371 3.29477 3.34368 3.38999 3.43336 3.47352 3.51028 3.54348 3.57303 3.59886 3.62093 3.63925 3.65381 3.66465 3.67183 3.67542 3.67551 3.6722 3.66563 3.65597 3.64339 3.62812 3.61041 3.59056 3.56891 3.54586 3.52184 3.49734 3.47293 3.44918 3.42672 3.4062 3.38826 3.37353 3.36256 3.35582 3.35367 3.3563 3.36379 3.37602 3.39274 3.41359 3.43811 3.46576 3.49598 3.52823 3.56196 3.59667 3.6319 3.66726 3.70241 3.73706 3.77098 3.80399 3.83593 3.86672 3.89628 3.92457 3.95157 3.97727 4.0017 4.02489 4.04685 4.06765 4.08732 4.1059 4.12346 4.14003 4.15567 4.17042 4.18433 4.19743 4.20978 4.2214 4.23235 4.24264 4.25233 4.26145 4.27002 4.27809 4.28569 4.29285 4.2996 4.30599 4.31205 4.31781 4.3233 4.32857 4.33365 4.33857 4.34337 4.34807 4.35271 4.35731 4.36191 4.36652 4.37117 4.37588 4.38066 4.38552 4.39048 4.39555 4.40071 4.40599 4.41137 4.41686 4.42244 4.4281 4.43385 4.43967 4.44554 4.45145 4.45739 4.46334 4.4693 4.47524 4.48115 4.48702 4.49283 4.49858 4.50425 4.50982 4.5153 4.52066 4.52591 4.53103 4.53602 4.54088 4.54559 4.55017 4.55459 4.55887 4.56299 4.56697 4.5708 4.57448 4.57801 4.5814 4.58464 4.58774 4.59071 4.59353 4.59623 4.5988 4.60125
4.56533 4.56182 4.55813 4.55425 4.55016 4.54585 4.5413 4.5365 4.53141 4.52603 4.52032 4.51427 4.50783 4.501 4.49372 4.48598 4.47773 4.46894 4.45956 4.44956 4.43888 4.42748 4.41531 4.40231 4.38843 4.3736 4.35778 4.34088 4.32285 4.3036 4.28308 4.2612 4.23789 4.21306 4.18664 4.15854 4.12869 4.09699 4.06338 4.02777 3.99009 3.95027 3.90825 3.864 3.81747 3.76866 3.71757 3.66424 3.60875 3.55123 3.49183 3.43081 3.36846 3.30518 3.24147 3.1779 3.11518 3.05414 2.99568 2.94083 2.89065 2.84623 2.80864 2.77885 2.75766 2.74568 2.74324 2.75038 2.76687 2.79219 2.82558 2.86612 2.91277 2.96443 3.02004 3.07854 3.13899 3.20053 3.26242 3.32404 3.38487 3.44449 3.50256 3.55882 3.61309 3.66523 3.71514 3.76276 3.80808 3.8511 3.89182 3.93027 3.9665 4.00056 4.03249 4.06235 4.0902 4.11609 4.14008 4.16223 4.18257 4.20117 4.21807 4.23331 4.24693 4.25896 4.26945 4.27841 4.28587 4.29186 4.29639 4.29949 4.30116 4.30141 4.30026 4.2977 4.29376 4.28841 4.28168 4.27356 4.26405 4.25315 4.24086 4.22719 4.21214 4.19571 4.17793 4.1588 4.13835 4.11659 4.09358 4.06934 4.04393 4.01742 3.98987 3.96139 3.93206 3.902 3.87135 3.84026 3.80888 3.77739 3.746 3.71489 3.68428 3.65439 3.62544 3.59765 3.57121 3.54632 3.52314 3.5018 3.4824 3.46499 3.44956 3.43607 3.42442 3.41443 3.4059 3.39856 3.39211 3.38623 3.38055 3.3747 3.36832 3.36104 3.35254 3.3425 3.33067 3.31685 3.30089 3.28275 3.26246 3.24015 3.21608 3.1906 3.16424 3.13762 3.11152 3.0868 3.06442 3.04537 3.03057 3.02083 3.01675 3.01862 3.02642 3.0398 3.05812 3.08053 3.10603 3.1336 3.1622 3.19086 3.21871 3.24497 3.26899 3.29019 3.30813 3.32244 3.33283 3.3391 3.34109 3.33874 3.33201 3.32094 3.30563 3.28623 3.26297 3.23614 3.20612 3.17339 3.13854 3.10228 3.06543 3.02899 2.99406 2.96186 2.93367 2.9108 2.89445 2.88562 2.885 2.89289 2.90917 2.9333 2.96442 3.00145 3.04318 3.0884 3.13595 3.18477 3.23393 3.28262 3.33017 3.376 3.41968 3.46083 3.49917 3.53446 3.56656 3.59532 3.62068 3.64257 3.66098 3.67591 3.68739 3.69547 3.70021 3.7017 3.70006 3.69541 3.68791 3.67776 3.66517 3.65038 3.63369 3.61542 3.59593 3.57564 3.55499 3.53447 3.5146 3.49592 3.47897 3.4643 3.45241 3.44377 3.43876 3.43765 3.44062 3.44772 3.45889 3.47393 3.49256 3.51441 3.53907 3.56609 3.59501 3.62537 3.65675 3.68874 3.72101 3.75322 3.78513 3.8165 3.84716 3.87696 3.90579 3.93357 3.96025 3.9858 4.0102 4.03345 4.05558 4.07659 4.09652 4.1154 4.13328 4.15019 4.16617 4.18127 4.19553 4.20898 4.22166 4.23363 4.2449 4.25552 4.26552 4.27494 4.28381 4.29216 4.30002 4.30744 4.31443 4.32104 4.3273 4.33323 4.33887 4.34426 4.34943 4.3544 4.35921 4.36389 4.36847 4.37298 4.37743 4.38187 4.3863 4.39075 4.39523 4.39976 4.40435 4.40902 4.41376 4.41859 4.4235 4.4285 4.43358 4.43874 4.44396 4.44926 4.45461 4.46 4.46543 4.47088 4.47634 4.4818 4.48724 4.49266 4.49804 4.50337 4.50864 4.51384 4.51896 4.52399 4.52892 4.53374 4.53846 4.54306 4.54753 4.55188 4.5561 4.56019 4.56414 4.56796 4.57164 4.57519 4.57861 4.58188 4.58503 4.58805 4.59093 4.59369 4.59633 4.59885 4.60125 4.60354
4.56892 4.56549 4.56189 4.55809 4.55408 4.54985 4.54538 4.54064 4.53563 4.53032 4.52468 4.51869 4.51233 4.50556 4.49836 4.49068 4.4825 4.47378 4.46448 4.45456 4.44397 4.43266 4.42058 4.40769 4.39393 4.37924 4.36355 4.34681 4.32895 4.3099 4.28959 4.26795 4.2449 4.22036 4.19425 4.16651 4.13703 4.10576 4.07261 4.0375 4.00036 3.96113 3.91975 3.87618 3.83039 3.78235 3.73207 3.6796 3.62499 3.56835 3.50984 3.44967 3.38811 3.32551 3.26231 3.19903 3.13632 3.07489 3.01559 2.95934 2.90717 2.86011 2.81925 2.78562 2.76015 2.74363 2.7366 2.73935 2.75186 2.77376 2.80444 2.84299 2.88837 2.9394 2.99491 3.05376 3.11488 3.17732 3.24027 3.30303 3.36503 3.4258 3.485 3.54235 3.59764 3.65073 3.70153 3.74998 3.79607 3.83979 3.88116 3.92023 3.95702 3.99159 4.02401 4.05432 4.08259 4.10887 4.13323 4.15572 4.17639 4.19529 4.21247 4.22797 4.24184 4.2541 4.2648 4.27395 4.2816 4.28775 4.29243 4.29565 4.29743 4.29778 4.29671 4.29422 4.29032 4.28501 4.27829 4.27016 4.26063 4.24969 4.23735 4.22361 4.20848 4.19196 4.17407 4.15482 4.13424 4.11235 4.08919 4.06481 4.03926 4.01261 3.98494 3.95634 3.92693 3.89681 3.86615 3.83508 3.80378 3.77245 3.74127 3.71046 3.68024 3.65084 3.62248 3.59538 3.56975 3.54577 3.5236 3.50337 3.48516 3.46902 3.45494 3.44284 3.43263 3.42412 3.4171 3.41131 3.40645 3.4022 3.39822 3.39415 3.38966 3.3844 3.37807 3.3704 3.36115 3.35016 3.33731 3.32258 3.306 3.28772 3.26797 3.2471 3.22556 3.2039 3.18277 3.1629 3.14504 3.12997 3.1184 3.11094 3.10802 3.10987 3.11645 3.12751 3.14257 3.16097 3.18195 3.20467 3.22829 3.25201 3.27507 3.29678 3.31656 3.33389 3.34834 3.35958 3.36732 3.37137 3.37159 3.3679 3.36029 3.34882 3.33357 3.31471 3.2925 3.26722 3.23927 3.20912 3.17735 3.14463 3.11173 3.07955 3.04905 3.02129 2.99732 2.9782 2.96488 2.95812 2.95845 2.96611 2.98098 3.00268 3.03054 3.06371 3.10123 3.1421 3.18534 3.23002 3.2753 3.32043 3.36478 3.40779 3.44902 3.4881 3.52471 3.55862 3.58966 3.61767 3.64257 3.66429 3.6828 3.69809 3.71018 3.71911 3.72496 3.72779 3.72773 3.7249 3.71945 3.71158 3.7015 3.68943 3.67566 3.66049 3.64425 3.62733 3.61013 3.59308 3.57662 3.56124 3.54739 3.53553 3.52609 3.51943 3.51588 3.51566 3.51893 3.52573 3.53602 3.54964 3.56639 3.58598 3.60807 3.6323 3.65829 3.68566 3.71404 3.7431 3.77252 3.80202 3.83136 3.86032 3.88874 3.91647 3.9434 3.96945 3.99454 4.01865 4.04175 4.06382 4.08487 4.10492 4.12397 4.14206 4.15921 4.17547 4.19085 4.2054 4.21916 4.23215 4.24442 4.256 4.26692 4.27722 4.28692 4.29607 4.3047 4.31282 4.32049 4.32772 4.33455 4.34101 4.34712 4.35293 4.35845 4.36373 4.36878 4.37365 4.37835 4.38291 4.38737 4.39174 4.39605 4.40033 4.40458 4.40884 4.41311 4.41741 4.42176 4.42615 4.4306 4.43512 4.4397 4.44434 4.44905 4.45383 4.45866 4.46354 4.46846 4.47342 4.47841 4.48342 4.48843 4.49343 4.49843 4.5034 4.50833 4.51322 4.51806 4.52283 4.52753 4.53215 4.53668 4.54111 4.54545 4.54969 4.55381 4.55782 4.56171 4.56549 4.56914 4.57267 4.57608 4.57937 4.58253 4.58557 4.58849 4.5913 4.59398 4.59655 4.59901 4.60135 4.60359 4.60573
4.57223 4.56888 4.56535 4.56163 4.5577 4.55354 4.54914 4.54448 4.53954 4.53429 4.52872 4.5228 4.51651 4.50981 4.50267 4.49507 4.48696 4.47832 4.4691 4.45926 4.44876 4.43755 4.42558 4.41281 4.39917 4.38462 4.36908 4.35251 4.33483 4.31598 4.2959 4.2745 4.25171 4.22747 4.20168 4.17429 4.1452 4.11434 4.08163 4.047 4.01038 3.97171 3.93092 3.88797 3.84282 3.79545 3.74585 3.69406 3.64013 3.58413 3.5262 3.46652 3.40532 3.3429 3.27964 3.21601 3.15256 3.08994 3.02893 2.97038 2.91527 2.86466 2.81966 2.78141 2.75102 2.72949 2.71763 2.71599 2.72477 2.74378 2.77247 2.80994 2.85505 2.90649 2.96294 3.02311 3.08578 3.14991 3.21458 3.27905 3.34269 3.40502 3.46567 3.52435 3.58087 3.63509 3.68692 3.73631 3.78325 3.82775 3.86983 3.90955 3.94694 3.98207 4.015 4.04579 4.0745 4.1012 4.12595 4.1488 4.16981 4.18903 4.20651 4.22229 4.23641 4.24892 4.25984 4.2692 4.27703 4.28335 4.28818 4.29154 4.29343 4.29388 4.29288 4.29044 4.28657 4.28127 4.27454 4.26639 4.2568 4.24579 4.23335 4.21949 4.20421 4.18752 4.16943 4.14997 4.12914 4.107 4.08356 4.05888 4.03301 4.00604 3.97803 3.9491 3.91935 3.88891 3.85793 3.82657 3.79503 3.76349 3.73216 3.70128 3.67107 3.64178 3.61363 3.58687 3.56169 3.53831 3.51688 3.49754 3.48035 3.46537 3.45257 3.44189 3.4332 3.42631 3.42101 3.41703 3.41407 3.41181 3.4099 3.40802 3.40582 3.403 3.39925 3.39432 3.38801 3.38017 3.37069 3.35956 3.34683 3.33262 3.31717 3.30077 3.28382 3.26679 3.25021 3.23469 3.22084 3.20926 3.20049 3.19501 3.19314 3.19503 3.20067 3.20985 3.22222 3.23725 3.25436 3.27288 3.29211 3.3114 3.3301 3.34762 3.36343 3.37708 3.38818 3.39641 3.40152 3.40333 3.40171 3.3966 3.38799 3.37593 3.36055 3.34202 3.32057 3.29654 3.27029 3.24231 3.21313 3.18339 3.15381 3.12519 3.09837 3.07426 3.05375 3.03768 3.02683 3.02178 3.02295 3.03052 3.04439 3.06426 3.0896 3.11974 3.15389 3.19121 3.23087 3.27206 3.31402 3.35607 3.39763 3.43815 3.4772 3.51442 3.54948 3.58216 3.61224 3.63959 3.66409 3.68568 3.7043 3.71995 3.73264 3.7424 3.7493 3.75341 3.75485 3.75373 3.75021 3.74447 3.73671 3.72716 3.71606 3.70372 3.69043 3.67654 3.66241 3.64842 3.63497 3.62247 3.61131 3.60187 3.59452 3.58956 3.58727 3.58782 3.59135 3.59791 3.60746 3.6199 3.63506 3.65271 3.67259 3.6944 3.71783 3.74255 3.76827 3.79468 3.82152 3.84852 3.87548 3.9022 3.92851 3.95428 3.9794 4.00377 4.02733 4.05003 4.07185 4.09276 4.11275 4.13183 4.15 4.1673 4.18373 4.19932 4.21411 4.22811 4.24137 4.25391 4.26576 4.27695 4.28752 4.2975 4.30692 4.31581 4.32419 4.3321 4.33956 4.34661 4.35327 4.35958 4.36556 4.37123 4.37664 4.38179 4.38674 4.39149 4.39608 4.40052 4.40486 4.4091 4.41327 4.41739 4.42148 4.42555 4.42963 4.43371 4.43783 4.44197 4.44615 4.45038 4.45466 4.45899 4.46337 4.46779 4.47226 4.47676 4.48131 4.48587 4.49046 4.49506 4.49967 4.50426 4.50885 4.51341 4.51793 4.52242 4.52686 4.53124 4.53555 4.5398 4.54396 4.54804 4.55203 4.55593 4.55973 4.56342 4.56701 4.5705 4.57387 4.57713 4.58029 4.58333 4.58626 4.58908 4.59179 4.59439 4.59689 4.59928 4.60156 4.60375 4.60583 4.60782
4.57528 4.57201 4.56855 4.5649 4.56104 4.55695 4.55262 4.54802 4.54315 4.53797 4.53247 4.52662 4.52039 4.51376 4.50669 4.49916 4.49114 4.48257 4.47344 4.46369 4.45328 4.44218 4.43032 4.41767 4.40416 4.38975 4.37438 4.35798 4.34049 4.32185 4.30199 4.28084 4.25833 4.23438 4.20892 4.18187 4.15315 4.1227 4.09042 4.05625 4.02012 3.98196 3.94171 3.89931 3.85472 3.80792 3.75889 3.70763 3.65418 3.5986 3.54098 3.48148 3.42027 3.3576 3.29379 3.22924 3.16442 3.09993 3.03645 2.9748 2.91592 2.86088 2.81087 2.76716 2.73109 2.70393 2.68682 2.68063 2.68583 2.70241 2.72986 2.76719 2.8131 2.86608 2.92456 2.98705 3.05219 3.11878 3.18584 3.25255 3.31827 3.38251 3.44489 3.50513 3.56305 3.61853 3.67148 3.72189 3.76974 3.81506 3.8579 3.89829 3.93631 3.97202 4.00548 4.03677 4.06594 4.09307 4.11823 4.14146 4.16282 4.18238 4.20018 4.21625 4.23066 4.24342 4.25457 4.26415 4.27218 4.27868 4.28366 4.28715 4.28916 4.2897 4.28877 4.28638 4.28253 4.27722 4.27046 4.26225 4.25258 4.24145 4.22886 4.21482 4.19934 4.1824 4.16404 4.14426 4.12309 4.10056 4.07671 4.05157 4.02522 3.99773 3.96918 3.93967 3.90932 3.87827 3.84668 3.81472 3.78258 3.75047 3.71862 3.68728 3.65669 3.6271 3.59879 3.57199 3.54694 3.52385 3.50289 3.4842 3.46788 3.45396 3.44241 3.43317 3.42609 3.42099 3.41763 3.41573 3.41497 3.41504 3.41558 3.41627 3.41675 3.41673 3.41593 3.41409 3.41102 3.40659 3.40069 3.39331 3.3845 3.37438 3.36314 3.35104 3.33843 3.32571 3.31331 3.30172 3.29144 3.28294 3.27664 3.27291 3.27198 3.27398 3.27889 3.28655 3.29668 3.30888 3.32269 3.33756 3.35294 3.36828 3.38304 3.39671 3.40884 3.41902 3.42691 3.43223 3.43475 3.4343 3.43078 3.42413 3.41437 3.40156 3.38581 3.36733 3.34635 3.3232 3.29824 3.27195 3.24483 3.2175 3.1906 3.16485 3.14101 3.11985 3.10211 3.08852 3.07967 3.07606 3.07799 3.0856 3.09882 3.11738 3.14086 3.1687 3.20023 3.23477 3.27156 3.30992 3.34917 3.38867 3.42789 3.46631 3.50352 3.53916 3.57291 3.60453 3.63382 3.66062 3.68482 3.70633 3.72511 3.74114 3.75443 3.765 3.77291 3.77824 3.78109 3.78158 3.77987 3.7761 3.77048 3.76323 3.75458 3.74479 3.73415 3.72297 3.71157 3.70029 3.68948 3.67949 3.67066 3.66332 3.65776 3.65427 3.65305 3.65427 3.65804 3.66441 3.67335 3.68479 3.6986 3.71461 3.73258 3.7523 3.77348 3.79588 3.81924 3.84328 3.86779 3.89253 3.91731 3.94195 3.9663 3.99023 4.01363 4.03641 4.05851 4.07986 4.10044 4.12021 4.13917 4.1573 4.17462 4.19113 4.20685 4.22179 4.23598 4.24944 4.26221 4.27429 4.28574 4.29656 4.30679 4.31645 4.32558 4.33421 4.34235 4.35005 4.35731 4.36418 4.37068 4.37684 4.38267 4.38822 4.3935 4.39855 4.40337 4.40801 4.41249 4.41682 4.42103 4.42514 4.42918 4.43315 4.43708 4.44099 4.44488 4.44876 4.45266 4.45657 4.46051 4.46448 4.46848 4.47252 4.47659 4.4807 4.48484 4.48901 4.4932 4.49741 4.50164 4.50587 4.51011 4.51433 4.51854 4.52273 4.52688 4.531 4.53508 4.5391 4.54306 4.54696 4.55079 4.55454 4.55821 4.5618 4.56529 4.5687 4.57201 4.57522 4.57834 4.58135 4.58427 4.58708 4.5898 4.59241 4.59492 4.59734 4.59965 4.60187 4.604 4.60603 4.60797 4.60983
4.5781 4.57489 4.5715 4.56792 4.56412 4.5601 4.55583 4.5513 4.54649 4.54138 4.53594 4.53016 4.524 4.51744 4.51044 4.50299 4.49504 4.48656 4.47751 4.46785 4.45755 4.44655 4.43481 4.42228 4.40892 4.39465 4.37944 4.36322 4.34593 4.3275 4.30787 4.28697 4.26473 4.24108 4.21594 4.18923 4.16089 4.13082 4.09897 4.06524 4.02957 3.99188 3.95212 3.91022 3.86612 3.81979 3.77121 3.72035 3.66723 3.61188 3.55436 3.49478 3.43326 3.37001 3.30527 3.23936 3.1727 3.10578 3.03923 2.9738 2.91042 2.85016 2.7943 2.74428 2.70166 2.66809 2.64513 2.63405 2.63569 2.65024 2.6772 2.71543 2.76332 2.81903 2.88068 2.94652 3.01499 3.08477 3.15479 3.22421 3.29238 3.35879 3.4231 3.48505 3.54448 3.60129 3.65543 3.70688 3.75568 3.80184 3.84544 3.88653 3.92519 3.96148 3.99549 4.02728 4.05693 4.08451 4.11008 4.13371 4.15545 4.17535 4.19348 4.20987 4.22456 4.23759 4.249 4.25881 4.26704 4.27373 4.27888 4.28251 4.28463 4.28526 4.28439 4.28204 4.2782 4.27288 4.26607 4.25777 4.24798 4.2367 4.22393 4.20966 4.1939 4.17666 4.15793 4.13775 4.11613 4.09309 4.06868 4.04294 4.01593 3.98773 3.95841 3.9281 3.8969 3.86496 3.83245 3.79955 3.76646 3.73341 3.70065 3.66844 3.63706 3.60678 3.5779 3.55068 3.52539 3.50227 3.48151 3.46327 3.44765 3.43469 3.42438 3.41663 3.41128 3.40814 3.40695 3.4074 3.40917 3.41192 3.41527 3.41889 3.42243 3.42558 3.42805 3.42961 3.43005 3.42924 3.42708 3.42356 3.41872 3.41265 3.40552 3.39756 3.38906 3.38034 3.37178 3.36376 3.35669 3.35093 3.34683 3.34466 3.34461 3.34676 3.35111 3.35753 3.3658 3.37561 3.38659 3.3983 3.4103 3.42212 3.43332 3.44348 3.45219 3.45911 3.46395 3.46645 3.46641 3.46369 3.4582 3.44991 3.43884 3.42505 3.4087 3.38997 3.3691 3.34643 3.32232 3.29722 3.27163 3.2461 3.22125 3.19773 3.17621 3.15736 3.14183 3.1302 3.12299 3.12059 3.12324 3.13104 3.14391 3.16162 3.18381 3.21 3.23963 3.27208 3.30671 3.3429 3.38003 3.41754 3.4549 3.49166 3.5274 3.56178 3.59449 3.62528 3.65396 3.68036 3.70437 3.72591 3.74491 3.76135 3.77524 3.78661 3.7955 3.80199 3.80618 3.80818 3.80813 3.80619 3.80254 3.79738 3.79094 3.78346 3.77519 3.76643 3.75744 3.74855 3.74005 3.73225 3.72544 3.71991 3.71591 3.71367 3.71338 3.71519 3.71917 3.72539 3.73383 3.74444 3.75711 3.77171 3.78805 3.80595 3.8252 3.84556 3.86682 3.88877 3.91119 3.93388 3.95668 3.97943 4.00197 4.0242 4.046 4.06728 4.08799 4.10806 4.12745 4.14614 4.1641 4.18132 4.19781 4.21356 4.22858 4.24289 4.2565 4.26944 4.28172 4.29337 4.30441 4.31486 4.32476 4.33412 4.34297 4.35135 4.35926 4.36674 4.37382 4.38051 4.38685 4.39286 4.39856 4.40398 4.40914 4.41406 4.41878 4.42331 4.42767 4.43189 4.43598 4.43997 4.44387 4.44771 4.45149 4.45523 4.45895 4.46265 4.46635 4.47005 4.47376 4.47749 4.48124 4.48501 4.48881 4.49263 4.49647 4.50033 4.50421 4.5081 4.512 4.5159 4.51979 4.52368 4.52755 4.5314 4.53522 4.539 4.54274 4.54644 4.55008 4.55366 4.55718 4.56063 4.564 4.5673 4.57052 4.57366 4.57671 4.57968 4.58255 4.58534 4.58803 4.59063 4.59314 4.59556 4.59789 4.60013 4.60228 4.60434 4.60631 4.6082 4.61001 4.61174
