ncols 378
nrows 31
xllcorner -103.116663615
yllcorner 25.7999992459
cellsize 0.0833333333
NODATA_value -9999
6.52345 5.98562 5.71958 5.95896 5.71926 5.76658 6.46244 8.12111 6.62926 6.5182 6.33998 6.92417 6.28301 6.38711 5.89287 5.84869 5.43697 5.24416 5.20799 5.22713 5.28102 5.31947 5.26 5.20674 5.18988 5.11281 5.08412 5.06895 5.05303 5.03792 5.02941 5.0214 5.014 5.00878 4.99715 5.00433 5.00157 5.00421 5.00821 4.99484 4.98872 4.988 4.98598 4.97897 4.97785 4.98038 4.97999 4.97527 4.97753 4.97592 4.97649 4.97805 4.97489 4.97353 4.97342 4.97286 4.97141 4.97043 4.97092 4.9716 4.97039 4.97091 4.97162 4.97355 4.97196 4.97062 4.97047 4.97038 4.9706 4.97074 4.97089 4.97099 4.97114 4.97125 4.97136 4.97169 4.97239 4.97239 4.97191 4.97222 4.97231 4.97231 4.97231 4.97231 4.97231 4.97231 4.97231 4.97231 4.97231 4.97231 4.97231 4.97231 4.97231 4.97231 4.97231 4.97231 4.97231 4.97231 4.97231 4.97231 4.97231 4.97231 4.97231 4.97231 4.97231 4.97231 4.97231 4.97231 4.97231 4.97231 4.97231 4.97231 4.97231 4.97231 4.97231 4.97231 4.97231 4.97231 4.97231 4.97231 4.97231 4.97231 4.97231 4.97231 4.97231 4.97231 4.97231 4.97231 4.97231 4.97231 4.97231 4.97231 4.97231 4.97231 4.97231 4.97231 4.97231 4.97231 4.97231 4.97231 4.97231 4.97231 4.97231 4.97231 4.97231 4.97231 4.97231 4.97231 4.97231 4.97231 4.97231 4.97231 4.97231 4.97231 4.97231 4.97231 4.97231 4.97231 4.97231 4.97231 4.97231 4.97231 4.97231 4.97231 4.97231 4.97231 4.97231 4.97231 4.97231 4.97231 4.97231 4.97231 4.97231 4.97231 4.97231 4.97231 4.97231 4.97231 4.97231 4.97231 4.97231 4.97231 4.97231 4.97231 4.97231 4.97231 4.97231 4.97231 4.97231 4.97231 4.97231 4.97231 4.97231 4.97231 4.97231 4.97231 4.97231 4.97231 4.97231 4.97231 4.97231 4.97231 4.97231 4.97231 4.97231 4.97231 4.97231 4.97231 4.97231 4.97231 4.97231 4.97231 4.97231 4.97231 4.97231 4.97231 4.97231 4.97231 4.97231 4.97231 4.97231 4.97231 4.97231 4.97231 4.97231 4.97231 4.97231 4.97231 4.97231 4.97231 4.97231 4.97231 4.97231 4.97231 4.97231 4.97231 4.97231 4.97231 4.97231 4.97231 4.97231 4.97231 4.97231 4.97231 4.97231 4.97231 4.97137 4.97082 4.97071 4.97061 4.97038 4.97039 4.97052 4.97049 4.97045 4.97049 4.97045 4.9704 4.97042 4.97046 4.97057 4.97067 4.97074 4.97123 4.97081 4.97073 4.97119 4.97191 4.97142 4.97231 4.97231 4.97231 4.97231 4.97231 4.97231 4.97231 4.97231 4.97231 4.97231 4.97231 4.97231 4.97231 4.97231 4.97231 4.97231 4.97231 4.97231 4.97231 4.97231 4.97231 4.97231 4.97231 4.97231 4.97231 4.97231 4.97231 4.97231 4.97231 4.97231 4.97231 4.97231 4.97231 4.97231 4.97231 4.97231 4.97231 4.97231 4.97231 4.97231 4.97231 4.97231 4.97231 4.97231 4.97231 4.97231 4.97231 4.97231 4.97231 4.97231 4.97231 4.97231 4.97231 4.97231 4.97231 4.97231 4.97231 4.97231 4.97231 4.97231 4.97231 4.97231 4.97231 4.97231 4.97231 4.97231 4.97231 4.97231 4.97231 4.97231 4.97231 4.97231 4.97231 4.97231 4.97231 4.97231 4.97231 4.97231 4.97231 4.97231 4.97231 4.97231 4.97231 4.97231 4.97231 4.97231 4.97231 4.97231 4.97231 4.97231 4.97231 4.97231 4.97231 4.97231 4.97231 4.97231 4.97231 4.97231 4.97231 4.97231 4.97231 4.97231 4.97231 4.97231 4.97231 4.97231 4.97231 4.97231 4.97231
6.50443 6.87693 5.86856 5.81214 5.99436 5.87136 6.03869 6.77499 6.8557 6.50883 6.44062 6.66347 6.2152 6.85033 5.90018 5.64727 5.59877 5.40304 5.30938 5.18547 5.20367 5.2553 5.21147 5.22023 5.16979 5.12996 5.11202 5.10136 5.0753 5.0607 5.04778 5.03551 5.02324 5.01013 4.99867 5.01208 5.0026 5.01306 5.01371 5.00564 5.00405 4.99644 4.99081 4.99255 4.9964 4.99505 4.98924 4.9874 4.98343 4.98305 4.98716 4.98641 4.98538 4.98369 4.98061 4.97995 4.9798 4.98102 4.98385 4.98269 4.98017 4.97949 4.97947 4.98076 4.98015 4.97947 4.97942 4.97943 4.97953 4.97979 4.98019 4.9803 4.9803 4.98042 4.98061 4.98082 4.98116 4.98128 4.98112 4.98112 4.98112 4.98112 4.98112 4.98112 4.98112 4.98112 4.98112 4.98112 4.98112 4.98112 4.98112 4.98112 4.98112 4.98112 4.98112 4.98112 4.98112 4.98112 4.98112 4.98112 4.98112 4.98112 4.98112 4.98112 4.98112 4.98112 4.98112 4.98112 4.98112 4.98112 4.98112 4.98112 4.98112 4.98112 4.98112 4.98112 4.98112 4.98112 4.98112 4.98112 4.98112 4.98112 4.98112 4.98112 4.98112 4.98112 4.98112 4.98112 4.98112 4.98112 4.98112 4.98112 4.98112 4.98112 4.98112 4.98112 4.98112 4.98112 4.98112 4.98112 4.98112 4.98112 4.98112 4.98112 4.98112 4.98112 4.98112 4.98112 4.98112 4.98112 4.98112 4.98112 4.98112 4.98112 4.98112 4.98112 4.98112 4.98112 4.98112 4.98112 4.98112 4.98112 4.98112 4.98112 4.98112 4.98112 4.98112 4.98112 4.98112 4.98112 4.98112 4.98112 4.98112 4.98112 4.98112 4.98112 4.98112 4.98112 4.98112 4.98112 4.98112 4.98112 4.98112 4.98112 4.98112 4.98112 4.98112 4.98112 4.98112 4.98112 4.98112 4.98112 4.98112 4.98112 4.98112 4.98112 4.98112 4.98112 4.98112 4.98112 4.98112 4.98112 4.98112 4.98112 4.98112 4.98112 4.98112 4.98112 4.98112 4.98112 4.98112 4.98112 4.98112 4.98112 4.98112 4.98112 4.98112 4.98112 4.98112 4.98112 4.98112 4.98112 4.98112 4.98112 4.98112 4.98112 4.98112 4.98112 4.98112 4.98112 4.98112 4.98112 4.98112 4.98112 4.98112 4.98112 4.98112 4.98112 4.98112 4.98112 4.98112 4.98112 4.98112 4.98112 4.98112 4.98112 4.98 4.97983 4.97963 4.97954 4.9795 4.97942 4.97945 4.97947 4.97943 4.97946 4.97943 4.97943 4.97943 4.97951 4.97969 4.9799 4.9803 4.97976 4.97987 4.97979 4.9802 4.98036 4.98068 4.98042 4.98112 4.98112 4.98112 4.98112 4.98112 4.98112 4.98112 4.98112 4.98112 4.98112 4.98112 4.98112 4.98112 4.98112 4.98112 4.98112 4.98112 4.98112 4.98112 4.98112 4.98112 4.98112 4.98112 4.98112 4.98112 4.98112 4.98112 4.98112 4.98112 4.98112 4.98112 4.98112 4.98112 4.98112 4.98112 4.98112 4.98112 4.98112 4.98112 4.98112 4.98112 4.98112 4.98112 4.98112 4.98112 4.98112 4.98112 4.98112 4.98112 4.98112 4.98112 4.98112 4.98112 4.98112 4.98112 4.98112 4.98112 4.98112 4.98112 4.98112 4.98112 4.98112 4.98112 4.98112 4.98112 4.98112 4.98112 4.98112 4.98112 4.98112 4.98112 4.98112 4.98112 4.98112 4.98112 4.98112 4.98112 4.98112 4.98112 4.98112 4.98112 4.98112 4.98112 4.98112 4.98112 4.98112 4.98112 4.98112 4.98112 4.98112 4.98112 4.98112 4.98112 4.98112 4.98112 4.98112 4.98112 4.98112 4.98112 4.98112 4.98112 4.98112 4.98112 4.98112 4.98112 4.98112 4.98112 4.98112
6.16895 7.99 6.17722 5.94914 6.56001 6.03235 6.19361 6.25595 6.36435 7.22724 6.46724 6.87862 6.5213 6.7608 6.23636 5.43255 5.49137 5.34209 5.24429 5.23483 5.18046 5.19185 5.17482 5.15001 5.1826 5.23276 5.18044 5.18213 5.11966 5.09296 5.06689 5.05515 5.03871 5.02256 5.01652 5.00763 5.01705 5.0181 5.02104 5.01926 5.01075 5.00534 5.00695 5.01605 5.00892 5.0025 5.00164 4.99857 4.9944 4.99308 4.9946 4.9964 4.9938 4.99209 4.99125 4.99229 4.99447 4.99452 4.9951 4.992 4.99231 4.99222 4.98991 4.99019 4.99043 4.99003 4.98989 4.98998 4.99012 4.99037 4.99059 4.9907 4.9907 4.99093 4.99134 4.99082 4.99135 4.99135 4.99135 4.99135 4.99135 4.99135 4.99135 4.99135 4.99135 4.99135 4.99135 4.99135 4.99135 4.99135 4.99135 4.99135 4.99135 4.99135 4.99135 4.99135 4.99135 4.99135 4.99135 4.99135 4.99135 4.99135 4.99135 4.99135 4.99135 4.99135 4.99135 4.99135 4.99135 4.99135 4.99135 4.99135 4.99135 4.99135 4.99135 4.99135 4.99135 4.99135 4.99135 4.99135 4.99135 4.99135 4.99135 4.99135 4.99135 4.99135 4.99135 4.99135 4.99135 4.99135 4.99135 4.99135 4.99135 4.99135 4.99135 4.99135 4.99135 4.99135 4.99135 4.99135 4.99135 4.99135 4.99135 4.99135 4.99135 4.99135 4.99135 4.99135 4.99135 4.99135 4.99135 4.99135 4.99135 4.99135 4.99135 4.99135 4.99135 4.99135 4.99135 4.99135 4.99135 4.99135 4.99135 4.99135 4.99135 4.99135 4.99135 4.99135 4.99135 4.99135 4.99135 4.99135 4.99135 4.99135 4.99135 4.99135 4.99135 4.99135 4.99135 4.99135 4.99135 4.99135 4.99135 4.99135 4.99135 4.99135 4.99135 4.99135 4.99135 4.99135 4.99135 4.99135 4.99135 4.99135 4.99135 4.99135 4.99135 4.99135 4.99135 4.99135 4.99135 4.99135 4.99135 4.99135 4.99135 4.99135 4.99135 4.99135 4.99135 4.99135 4.99135 4.99135 4.99135 4.99135 4.99135 4.99135 4.99135 4.99135 4.99135 4.99135 4.99135 4.99135 4.99135 4.99135 4.99135 4.99135 4.99135 4.99135 4.99135 4.99135 4.99135 4.99135 4.99135 4.99135 4.99135 4.99135 4.99135 4.99135 4.99135 4.99135 4.99135 4.99135 4.99135 4.99135 4.99135 4.9905 4.99037 4.99037 4.99007 4.99009 4.98998 4.98991 4.98993 4.98989 4.98989 4.98989 4.9899 4.98992 4.98991 4.99 4.99006 4.99047 4.99009 4.99024 4.99012 4.9901 4.99037 4.99055 4.99088 4.99066 4.99135 4.99135 4.99135 4.99135 4.99135 4.99135 4.99135 4.99135 4.99135 4.99135 4.99135 4.99135 4.99135 4.99135 4.99135 4.99135 4.99135 4.99135 4.99135 4.99135 4.99135 4.99135 4.99135 4.99135 4.99135 4.99135 4.99135 4.99135 4.99135 4.99135 4.99135 4.99135 4.99135 4.99135 4.99135 4.99135 4.99135 4.99135 4.99135 4.99135 4.99135 4.99135 4.99135 4.99135 4.99135 4.99135 4.99135 4.99135 4.99135 4.99135 4.99135 4.99135 4.99135 4.99135 4.99135 4.99135 4.99135 4.99135 4.99135 4.99135 4.99135 4.99135 4.99135 4.99135 4.99135 4.99135 4.99135 4.99135 4.99135 4.99135 4.99135 4.99135 4.99135 4.99135 4.99135 4.99135 4.99135 4.99135 4.99135 4.99135 4.99135 4.99135 4.99135 4.99135 4.99135 4.99135 4.99135 4.99135 4.99135 4.99135 4.99135 4.99135 4.99135 4.99135 4.99135 4.99135 4.99135 4.99135 4.99135 4.99135 4.99135 4.99135 4.99135 4.99135 4.99135 4.99135 4.99135 4.99135
6.16713 7.13285 7.16675 6.14413 6.49406 6.23684 6.46957 6.39405 6.22789 6.72263 7.01505 6.05804 6.27712 6.47366 5.73729 5.41255 5.28771 5.22241 5.27583 5.18232 5.16281 5.13948 5.14235 5.1341 5.14522 5.18112 5.20041 5.2167 5.17891 5.12913 5.09516 5.07325 5.0577 5.04585 5.03421 5.02597 5.02066 5.02244 5.02616 5.03531 5.02214 5.01832 5.02799 5.01986 5.02028 5.01978 5.01203 5.00628 5.00421 5.00298 5.00203 5.00215 5.0015 5.00097 5.00302 5.00833 5.00726 5.01015 5.00749 5.00247 5.00057 5.00003 4.99967 4.99948 4.99964 4.99948 4.99947 4.99952 4.99966 5.00012 5.00002 5.00017 5.00071 5.00071 5.00078 5.00071 5.00071 5.00071 5.00071 5.00071 5.00071 5.00071 5.00071 5.00071 5.00071 5.00071 5.00071 5.00071 5.00071 5.00071 5.00071 5.00071 5.00071 5.00071 5.00071 5.00071 5.00071 5.00071 5.00071 5.00071 5.00071 5.00071 5.00071 5.00071 5.00071 5.00071 5.00071 5.00071 5.00071 5.00071 5.00071 5.00071 5.00071 5.00071 5.00071 5.00071 5.00071 5.00071 5.00071 5.00071 5.00071 5.00071 5.00071 5.00071 5.00071 5.00071 5.00071 5.00071 5.00071 5.00071 5.00071 5.00071 5.00071 5.00071 5.00071 5.00071 5.00071 5.00071 5.00071 5.00071 5.00071 5.00071 5.00071 5.00071 5.00071 5.00071 5.00071 5.00071 5.00071 5.00071 5.00071 5.00071 5.00071 5.00071 5.00071 5.00071 5.00071 5.00071 5.00071 5.00071 5.00071 5.00071 5.00071 5.00071 5.00071 5.00071 5.00071 5.00071 5.00071 5.00071 5.00071 5.00071 5.00071 5.00071 5.00071 5.00071 5.00071 5.00071 5.00071 5.00071 5.00071 5.00071 5.00071 5.00071 5.00071 5.00071 5.00071 5.00071 5.00071 5.00071 5.00071 5.00071 5.00071 5.00071 5.00071 5.00071 5.00071 5.00071 5.00071 5.00071 5.00071 5.00071 5.00071 5.00071 5.00071 5.00071 5.00071 5.00071 5.00071 5.00071 5.00071 5.00071 5.00071 5.00071 5.00071 5.00071 5.00071 5.00071 5.00071 5.00071 5.00071 5.00071 5.00071 5.00071 5.00071 5.00071 5.00071 5.00071 5.00071 5.00071 5.00071 5.00071 5.00071 5.00071 5.00071 5.00071 5.00071 5.00071 5.00071 5.00071 5.00071 5.00071 5.00071 5.00071 5.00071 5.00045 4.9999 4.99966 4.99961 4.99975 4.99967 4.99961 4.99947 4.99948 4.99973 4.99952 4.99947 4.99949 4.99964 4.99949 4.99966 4.9997 4.99964 4.99967 4.99961 4.99966 4.99972 5.00007 5.00039 5.00023 5.00045 5.00071 5.00071 5.00071 5.00071 5.00071 5.00071 5.00071 5.00071 5.00071 5.00071 5.00071 5.00071 5.00071 5.00071 5.00071 5.00071 5.00071 5.00071 5.00071 5.00071 5.00071 5.00071 5.00071 5.00071 5.00071 5.00071 5.00071 5.00071 5.00071 5.00071 5.00071 5.00071 5.00071 5.00071 5.00071 5.00071 5.00071 5.00071 5.00071 5.00071 5.00071 5.00071 5.00071 5.00071 5.00071 5.00071 5.00071 5.00071 5.00071 5.00071 5.00071 5.00071 5.00071 5.00071 5.00071 5.00071 5.00071 5.00071 5.00071 5.00071 5.00071 5.00071 5.00071 5.00071 5.00071 5.00071 5.00071 5.00071 5.00071 5.00071 5.00071 5.00071 5.00071 5.00071 5.00071 5.00071 5.00071 5.00071 5.00071 5.00071 5.00071 5.00071 5.00071 5.00071 5.00071 5.00071 5.00071 5.00071 5.00071 5.00071 5.00071 5.00071 5.00071 5.00071 5.00071 5.00071 5.00071 5.00071 5.00071 5.00071 5.00071 5.00071 5.00071 5.00071 5.00071 5.00071 5.00071
6.09897 6.66357 7.00055 6.46541 6.51739 6.34897 6.7247 6.64616 6.20862 6.5339 6.49864 6.29464 5.97274 5.92092 6.2803 5.46629 5.32053 5.21456 5.18678 5.24561 5.16674 5.14272 5.14183 5.13128 5.13295 5.20347 5.21985 5.28375 5.39606 5.19253 5.14044 5.09124 5.072 5.05689 5.04247 5.03959 5.04135 5.02845 5.02945 5.03826 5.04242 5.03597 5.03973 5.05152 5.03645 5.03009 5.02333 5.01897 5.01421 5.0172 5.01414 5.01171 5.01421 5.01581 5.01637 5.01988 5.03096 5.02372 5.01565 5.01545 5.01096 5.01148 5.00968 5.0093 5.00929 5.00931 5.00929 5.00951 5.00961 5.00965 5.00985 5.01 5.01034 5.00985 5.01034 5.01016 5.01034 5.01034 5.01034 5.01034 5.01034 5.01034 5.01034 5.01034 5.01034 5.01034 5.01034 5.01034 5.01034 5.01034 5.01034 5.01034 5.01034 5.01034 5.01034 5.01034 5.01034 5.01034 5.01034 5.01034 5.01034 5.01034 5.01034 5.01034 5.01034 5.01034 5.01034 5.01034 5.01034 5.01034 5.01034 5.01034 5.01034 5.01034 5.01034 5.01034 5.01034 5.01034 5.01034 5.01034 5.01034 5.01034 5.01034 5.01034 5.01034 5.01034 5.01034 5.01034 5.01034 5.01034 5.01034 5.01034 5.01034 5.01034 5.01034 5.01034 5.01034 5.01034 5.01034 5.01034 5.01034 5.01034 5.01034 5.01034 5.01034 5.01034 5.01034 5.01034 5.01034 5.01034 5.01034 5.01034 5.01034 5.01034 5.01034 5.01034 5.01034 5.01034 5.01034 5.01034 5.01034 5.01034 5.01034 5.01034 5.01034 5.01034 5.01034 5.01034 5.01034 5.01034 5.01034 5.01034 5.01034 5.01034 5.01034 5.01034 5.01034 5.01034 5.01034 5.01034 5.01034 5.01034 5.01034 5.01034 5.01034 5.01034 5.01034 5.01034 5.01034 5.01034 5.01034 5.01034 5.01034 5.01034 5.01034 5.01034 5.01034 5.01034 5.01034 5.01034 5.01034 5.01034 5.01034 5.01034 5.01034 5.01034 5.01034 5.01034 5.01034 5.01034 5.01034 5.01034 5.01034 5.01034 5.01034 5.01034 5.01034 5.01034 5.01034 5.01034 5.01034 5.01034 5.01034 5.01034 5.01034 5.01034 5.01034 5.01034 5.01034 5.01034 5.01034 5.01034 5.01034 5.01034 5.01034 5.01034 5.01034 5.01034 5.01034 5.01034 5.01034 5.01034 5.01034 5.01034 5.01034 5.00957 5.00989 5.00957 5.00951 5.00937 5.0093 5.00929 5.0093 5.00929 5.01008 5.00929 5.00938 5.00942 5.00931 5.00928 5.0094 5.00941 5.00958 5.00937 5.00933 5.00937 5.00939 5.00954 5.00999 5.0099 5.00976 5.01053 5.01034 5.01034 5.01034 5.01034 5.01034 5.01034 5.01034 5.01034 5.01034 5.01034 5.01034 5.01034 5.01034 5.01034 5.01034 5.01034 5.01034 5.01034 5.01034 5.01034 5.01034 5.01034 5.01034 5.01034 5.01034 5.01034 5.01034 5.01034 5.01034 5.01034 5.01034 5.01034 5.01034 5.01034 5.01034 5.01034 5.01034 5.01034 5.01034 5.01034 5.01034 5.01034 5.01034 5.01034 5.01034 5.01034 5.01034 5.01034 5.01034 5.01034 5.01034 5.01034 5.01034 5.01034 5.01034 5.01034 5.01034 5.01034 5.01034 5.01034 5.01034 5.01034 5.01034 5.01034 5.01034 5.01034 5.01034 5.01034 5.01034 5.01034 5.01034 5.01034 5.01034 5.01034 5.01034 5.01034 5.01034 5.01034 5.01034 5.01034 5.01034 5.01034 5.01034 5.01034 5.01034 5.01034 5.01034 5.01034 5.01034 5.01034 5.01034 5.01034 5.01034 5.01034 5.01034 5.01034 5.01034 5.01034 5.01034 5.01034 5.01034 5.01034 5.01034 5.01034 5.01034 5.01034
5.92615 6.53985 6.22168 6.24783 6.76323 6.43527 6.23179 6.17246 6.43273 7.46783 6.41508 6.42901 6.01691 5.92553 7.113 5.82075 5.35935 5.22775 5.18998 5.16796 5.15713 5.14051 5.13152 5.14158 5.12851 5.16811 5.1731 5.25859 5.32948 5.22081 5.1675 5.1132 5.08621 5.07411 5.06103 5.0609 5.0499 5.04611 5.03752 5.0402 5.04635 5.04825 5.04363 5.05783 5.0466 5.03777 5.03213 5.02867 5.02995 5.02942 5.02485 5.02499 5.02891 5.03087 5.03109 5.04065 5.04149 5.03753 5.03315 5.02818 5.02467 5.02225 5.02151 5.02073 5.02082 5.02063 5.02063 5.02069 5.02075 5.02082 5.02102 5.02122 5.02106 5.02149 5.02123 5.02149 5.02149 5.02149 5.02149 5.02149 5.02149 5.02149 5.02149 5.02149 5.02149 5.02149 5.02149 5.02149 5.02149 5.02149 5.02149 5.02149 5.02149 5.02149 5.02149 5.02149 5.02149 5.02149 5.02149 5.02149 5.02149 5.02149 5.02149 5.02149 5.02149 5.02149 5.02149 5.02149 5.02149 5.02149 5.02149 5.02149 5.02149 5.02149 5.02149 5.02149 5.02149 5.02149 5.02149 5.02149 5.02149 5.02149 5.02149 5.02149 5.02149 5.02149 5.02149 5.02149 5.02149 5.02149 5.02149 5.02149 5.02149 5.02149 5.02149 5.02149 5.02149 5.02149 5.02149 5.02149 5.02149 5.02149 5.02149 5.02149 5.02149 5.02149 5.02149 5.02149 5.02149 5.02149 5.02149 5.02149 5.02149 5.02149 5.02149 5.02149 5.02149 5.02149 5.02149 5.02149 5.02149 5.02149 5.02149 5.02149 5.02149 5.02149 5.02149 5.02149 5.02149 5.02149 5.02149 5.02149 5.02149 5.02149 5.02149 5.02149 5.02149 5.02149 5.02149 5.02149 5.02149 5.02149 5.02149 5.02149 5.02149 5.02149 5.02149 5.02149 5.02149 5.02149 5.02149 5.02149 5.02149 5.02149 5.02149 5.02149 5.02149 5.02149 5.02149 5.02149 5.02149 5.02149 5.02149 5.02149 5.02149 5.02149 5.02149 5.02149 5.02149 5.02149 5.02149 5.02149 5.02149 5.02149 5.02149 5.02149 5.02149 5.02149 5.02149 5.02149 5.02149 5.02149 5.02149 5.02149 5.02149 5.02149 5.02149 5.02149 5.02149 5.02149 5.02149 5.02149 5.02149 5.02149 5.02149 5.02149 5.02149 5.02149 5.02149 5.02149 5.02149 5.02149 5.02149 5.02149 5.02149 5.02091 5.02149 5.02149 5.02133 5.02087 5.02077 5.02062 5.02067 5.02067 5.02118 5.02077 5.02066 5.02083 5.02071 5.02065 5.02062 5.02072 5.02088 5.02075 5.02065 5.02063 5.02073 5.02079 5.02114 5.02109 5.02098 5.02118 5.02149 5.02149 5.02149 5.02149 5.02149 5.02149 5.02149 5.02149 5.02149 5.02149 5.02149 5.02149 5.02149 5.02149 5.02149 5.02149 5.02149 5.02149 5.02149 5.02149 5.02149 5.02149 5.02149 5.02149 5.02149 5.02149 5.02149 5.02149 5.02149 5.02149 5.02149 5.02149 5.02149 5.02149 5.02149 5.02149 5.02149 5.02149 5.02149 5.02149 5.02149 5.02149 5.02149 5.02149 5.02149 5.02149 5.02149 5.02149 5.02149 5.02149 5.02149 5.02149 5.02149 5.02149 5.02149 5.02149 5.02149 5.02149 5.02149 5.02149 5.02149 5.02149 5.02149 5.02149 5.02149 5.02149 5.02149 5.02149 5.02149 5.02149 5.02149 5.02149 5.02149 5.02149 5.02149 5.02149 5.02149 5.02149 5.02149 5.02149 5.02149 5.02149 5.02149 5.02149 5.02149 5.02149 5.02149 5.02149 5.02149 5.02149 5.02149 5.02149 5.02149 5.02149 5.02149 5.02149 5.02149 5.02149 5.02149 5.02149 5.02149 5.02149 5.02149 5.02149 5.02149 5.02149
5.91067 5.94367 5.97397 6.17994 6.4678 6.40315 6.37351 6.18238 6.1757 6.57018 6.97303 6.38852 6.3322 6.27373 6.66416 7.02282 5.80956 5.37129 5.25904 5.222 5.18833 5.16158 5.14807 5.12908 5.12482 5.13176 5.1471 5.1852 5.26008 5.29032 5.18141 5.11955 5.09492 5.08052 5.07616 5.07371 5.05721 5.05486 5.0531 5.0493 5.05825 5.06332 5.0503 5.05751 5.07137 5.05288 5.0461 5.04304 5.04153 5.04184 5.04083 5.03768 5.04146 5.05025 5.04629 5.05431 5.05034 5.0424 5.04146 5.03654 5.03384 5.03261 5.03135 5.03101 5.03099 5.03097 5.03151 5.03159 5.03115 5.03125 5.03139 5.03137 5.03169 5.03169 5.03169 5.03169 5.03169 5.03169 5.03169 5.03169 5.03169 5.03169 5.03169 5.03169 5.03169 5.03169 5.03169 5.03169 5.03169 5.03169 5.03169 5.03169 5.03169 5.03169 5.03169 5.03169 5.03169 5.03169 5.03169 5.03169 5.03169 5.03169 5.03169 5.03169 5.03169 5.03169 5.03169 5.03169 5.03169 5.03169 5.03169 5.03169 5.03169 5.03169 5.03169 5.03169 5.03169 5.03169 5.03169 5.03169 5.03169 5.03169 5.03169 5.03169 5.03169 5.03169 5.03169 5.03169 5.03169 5.03169 5.03169 5.03169 5.03169 5.03169 5.03169 5.03169 5.03169 5.03169 5.03169 5.03169 5.03169 5.03169 5.03169 5.03169 5.03169 5.03169 5.03169 5.03169 5.03169 5.03169 5.03169 5.03169 5.03169 5.03169 5.03169 5.03169 5.03169 5.03169 5.03169 5.03169 5.03169 5.03169 5.03169 5.03169 5.03169 5.03169 5.03169 5.03169 5.03169 5.03169 5.03169 5.03169 5.03169 5.03169 5.03169 5.03169 5.03169 5.03169 5.03169 5.03169 5.03169 5.03169 5.03169 5.03169 5.03169 5.03169 5.03169 5.03169 5.03169 5.03169 5.03169 5.03169 5.03169 5.03169 5.03169 5.03169 5.03169 5.03169 5.03169 5.03169 5.03169 5.03169 5.03169 5.03169 5.03169 5.03169 5.03169 5.03169 5.03169 5.03169 5.03169 5.03169 5.03169 5.03169 5.03169 5.03169 5.03169 5.03169 5.03169 5.03169 5.03169 5.03169 5.03169 5.03169 5.03169 5.03169 5.03169 5.03169 5.03169 5.03169 5.03169 5.03169 5.03169 5.03169 5.03169 5.03169 5.03169 5.03169 5.03169 5.03169 5.03169 5.03169 5.03169 5.03169 5.03103 5.03134 5.03169 5.03169 5.03169 5.03115 5.03116 5.03108 5.03099 5.031 5.03105 5.03148 5.03102 5.03132 5.03106 5.03139 5.03103 5.031 5.03118 5.03115 5.03108 5.03099 5.03098 5.03105 5.03138 5.03138 5.0313 5.03127 5.03169 5.03169 5.03169 5.03169 5.03169 5.03169 5.03169 5.03169 5.03169 5.03169 5.03169 5.03169 5.03169 5.03169 5.03169 5.03169 5.03169 5.03169 5.03169 5.03169 5.03169 5.03169 5.03169 5.03169 5.03169 5.03169 5.03169 5.03169 5.03169 5.03169 5.03169 5.03169 5.03169 5.03169 5.03169 5.03169 5.03169 5.03169 5.03169 5.03169 5.03169 5.03169 5.03169 5.03169 5.03169 5.03169 5.03169 5.03169 5.03169 5.03169 5.03169 5.03169 5.03169 5.03169 5.03169 5.03169 5.03169 5.03169 5.03169 5.03169 5.03169 5.03169 5.03169 5.03169 5.03169 5.03169 5.03169 5.03169 5.03169 5.03169 5.03169 5.03169 5.03169 5.03169 5.03169 5.03169 5.03169 5.03169 5.03169 5.03169 5.03169 5.03169 5.03169 5.03169 5.03169 5.03169 5.03169 5.03169 5.03169 5.03169 5.03169 5.03169 5.03169 5.03169 5.03169 5.03169 5.03169 5.03169 5.03169 5.03169 5.03169 5.03169 5.03169 5.03169 5.03169 5.03169
5.929 5.93557 5.95172 6.05496 6.82291 6.51672 6.47465 6.36121 6.18493 6.46562 6.53528 6.78022 7.05017 6.70422 6.15297 6.63102 6.12986 5.94085 6.11107 6.00439 5.34149 5.21725 5.16948 5.1532 5.13695 5.12463 5.134 5.14822 5.16691 5.19413 5.14677 5.11953 5.09627 5.08797 5.09253 5.0774 5.06774 5.06567 5.06332 5.05574 5.0606 5.06377 5.05826 5.06804 5.07692 5.06307 5.05693 5.05556 5.05631 5.0536 5.0556 5.05284 5.05434 5.06092 5.07895 5.06135 5.0546 5.05648 5.04894 5.04687 5.04394 5.04283 5.04211 5.04168 5.04159 5.04159 5.0416 5.04166 5.04168 5.04216 5.04216 5.04216 5.04216 5.04216 5.04216 5.04216 5.04216 5.04216 5.04216 5.04216 5.04216 5.04216 5.04216 5.04216 5.04216 5.04216 5.04216 5.04216 5.04216 5.04216 5.04216 5.04216 5.04216 5.04216 5.04216 5.04216 5.04216 5.04216 5.04216 5.04216 5.04216 5.04216 5.04216 5.04216 5.04216 5.04216 5.04216 5.04216 5.04216 5.04216 5.04216 5.04216 5.04216 5.04216 5.04216 5.04216 5.04216 5.04216 5.04216 5.04216 5.04216 5.04216 5.04216 5.04216 5.04216 5.04216 5.04216 5.04216 5.04216 5.04216 5.04216 5.04216 5.04216 5.04216 5.04216 5.04216 5.04216 5.04216 5.04216 5.04216 5.04216 5.04216 5.04216 5.04216 5.04216 5.04216 5.04216 5.04216 5.04216 5.04216 5.04216 5.04216 5.04216 5.04216 5.04216 5.04216 5.04216 5.04216 5.04216 5.04216 5.04216 5.04216 5.04216 5.04216 5.04216 5.04216 5.04216 5.04216 5.04216 5.04216 5.04216 5.04216 5.04216 5.04216 5.04216 5.04216 5.04216 5.04216 5.04216 5.04216 5.04216 5.04216 5.04216 5.04216 5.04216 5.04216 5.04216 5.04216 5.04216 5.04216 5.04216 5.04216 5.04216 5.04216 5.04216 5.04216 5.04216 5.04216 5.04216 5.04216 5.04216 5.04216 5.04216 5.04216 5.04216 5.04216 5.04216 5.04216 5.04216 5.04216 5.04216 5.04216 5.04216 5.04216 5.04216 5.04216 5.04216 5.04216 5.04216 5.04216 5.04216 5.04216 5.04216 5.04216 5.04216 5.04216 5.04216 5.04216 5.04216 5.04216 5.04216 5.04216 5.04216 5.04216 5.04216 5.04216 5.04216 5.04216 5.04216 5.04216 5.04216 5.04216 5.04216 5.04216 5.0423 5.04183 5.04213 5.04216 5.04216 5.04195 5.04159 5.04161 5.04167 5.04241 5.04186 5.04235 5.04179 5.0423 5.04194 5.04246 5.04164 5.04159 5.0416 5.0416 5.0416 5.04159 5.0416 5.04161 5.04182 5.04192 5.04185 5.04182 5.04216 5.04216 5.04216 5.04216 5.04216 5.04216 5.04216 5.04216 5.04216 5.04216 5.04216 5.04216 5.04216 5.04216 5.04216 5.04216 5.04216 5.04216 5.04216 5.04216 5.04216 5.04216 5.04216 5.04216 5.04216 5.04216 5.04216 5.04216 5.04216 5.04216 5.04216 5.04216 5.04216 5.04216 5.04216 5.04216 5.04216 5.04216 5.04216 5.04216 5.04216 5.04216 5.04216 5.04216 5.04216 5.04216 5.04216 5.04216 5.04216 5.04216 5.04216 5.04216 5.04216 5.04216 5.04216 5.04216 5.04216 5.04216 5.04216 5.04216 5.04216 5.04216 5.04216 5.04216 5.04216 5.04216 5.04216 5.04216 5.04216 5.04216 5.04216 5.04216 5.04216 5.04216 5.04216 5.04216 5.04216 5.04216 5.04216 5.04216 5.04216 5.04216 5.04216 5.04216 5.04216 5.04216 5.04216 5.04216 5.04216 5.04216 5.04216 5.04216 5.04216 5.04216 5.04216 5.04216 5.04216 5.04216 5.04216 5.04216 5.04216 5.04216 5.04216 5.04216 5.04216 5.04216
6.00417 6.04785 5.96876 6.00514 6.6803 7.02812 6.7224 6.64702 6.199 6.27394 6.56068 6.50264 6.5411 6.13494 6.28355 5.81808 5.74796 5.60061 5.50478 5.5759 5.59011 5.25518 5.203 5.17933 5.16098 5.14912 5.13048 5.13472 5.13213 5.13229 5.1237 5.11088 5.11138 5.09815 5.10142 5.09127 5.08725 5.08938 5.0826 5.07765 5.06865 5.07286 5.0671 5.083 5.08444 5.08085 5.0734 5.07113 5.0686 5.06853 5.06999 5.07507 5.07381 5.08151 5.07786 5.08031 5.07322 5.06547 5.06153 5.05832 5.05641 5.0551 5.05429 5.05398 5.05385 5.05384 5.05385 5.05391 5.05397 5.05395 5.05427 5.05427 5.05427 5.05427 5.05427 5.05427 5.05427 5.05427 5.05427 5.05427 5.05427 5.05427 5.05427 5.05427 5.05427 5.05427 5.05427 5.05427 5.05427 5.05427 5.05427 5.05427 5.05427 5.05427 5.05427 5.05427 5.05427 5.05427 5.05427 5.05427 5.05427 5.05427 5.05427 5.05427 5.05427 5.05427 5.05427 5.05427 5.05427 5.05427 5.05427 5.05427 5.05427 5.05427 5.05427 5.05427 5.05427 5.05427 5.05427 5.05427 5.05427 5.05427 5.05427 5.05427 5.05427 5.05427 5.05427 5.05427 5.05427 5.05427 5.05427 5.05427 5.05427 5.05427 5.05427 5.05427 5.05427 5.05427 5.05427 5.05427 5.05427 5.05427 5.05427 5.05427 5.05427 5.05427 5.05427 5.05427 5.05427 5.05427 5.05427 5.05427 5.05427 5.05427 5.05427 5.05427 5.05427 5.05427 5.05427 5.05427 5.05427 5.05427 5.05427 5.05427 5.05427 5.05427 5.05427 5.05427 5.05427 5.05427 5.05427 5.05427 5.05427 5.05427 5.05427 5.05427 5.05427 5.05427 5.05427 5.05427 5.05427 5.05427 5.05427 5.05427 5.05427 5.05427 5.05427 5.05427 5.05427 5.05427 5.05427 5.05427 5.05427 5.05427 5.05427 5.05427 5.05427 5.05427 5.05427 5.05427 5.05427 5.05427 5.05427 5.05427 5.05427 5.05427 5.05427 5.05427 5.05427 5.05427 5.05427 5.05427 5.05427 5.05427 5.05427 5.05427 5.05427 5.05427 5.05427 5.05427 5.05427 5.05427 5.05427 5.05427 5.05427 5.05427 5.05427 5.05427 5.05427 5.05427 5.05427 5.05427 5.05427 5.05427 5.05427 5.05427 5.05427 5.05427 5.05427 5.05427 5.05427 5.05427 5.05427 5.05427 5.05427 5.05432 5.05427 5.05427 5.05432 5.05387 5.0539 5.05396 5.05408 5.05423 5.05428 5.05425 5.054 5.05422 5.05445 5.05424 5.05389 5.05386 5.054 5.05384 5.05384 5.05384 5.05384 5.05384 5.05393 5.05402 5.05397 5.05393 5.05399 5.05427 5.05427 5.05427 5.05427 5.05427 5.05427 5.05427 5.05427 5.05427 5.05427 5.05427 5.05427 5.05427 5.05427 5.05427 5.05427 5.05427 5.05427 5.05427 5.05427 5.05427 5.05427 5.05427 5.05427 5.05427 5.05427 5.05427 5.05427 5.05427 5.05427 5.05427 5.05427 5.05427 5.05427 5.05427 5.05427 5.05427 5.05427 5.05427 5.05427 5.05427 5.05427 5.05427 5.05427 5.05427 5.05427 5.05427 5.05427 5.05427 5.05427 5.05427 5.05427 5.05427 5.05427 5.05427 5.05427 5.05427 5.05427 5.05427 5.05427 5.05427 5.05427 5.05427 5.05427 5.05427 5.05427 5.05427 5.05427 5.05427 5.05427 5.05427 5.05427 5.05427 5.05427 5.05427 5.05427 5.05427 5.05427 5.05427 5.05427 5.05427 5.05427 5.05427 5.05427 5.05427 5.05427 5.05427 5.05427 5.05427 5.05427 5.05427 5.05427 5.05427 5.05427 5.05427 5.05427 5.05427 5.05427 5.05427 5.05427 5.05427 5.05427 5.05427 5.05427 5.05427
6.1163 6.05164 6.00386 6.10721 6.90421 7.64951 7.02979 6.69782 6.34371 6.21808 6.65764 6.87364 6.76339 6.16655 5.88241 5.90878 5.61793 5.5318 5.52807 5.40282 5.37224 5.25621 5.24605 5.19696 5.17206 5.19142 5.14655 5.13446 5.1284 5.12656 5.12434 5.11941 5.12124 5.11171 5.10729 5.1085 5.10987 5.12011 5.10044 5.09556 5.08988 5.08021 5.0761 5.07853 5.0932 5.08633 5.09196 5.08764 5.08439 5.08966 5.09175 5.09719 5.10434 5.10575 5.09366 5.08583 5.07823 5.07423 5.07158 5.06875 5.06695 5.0659 5.06539 5.06509 5.06502 5.06503 5.06505 5.06504 5.06509 5.06531 5.06515 5.06534 5.06534 5.06534 5.06534 5.06534 5.06534 5.06534 5.06534 5.06534 5.06534 5.06534 5.06534 5.06534 5.06534 5.06534 5.06534 5.06534 5.06534 5.06534 5.06534 5.06534 5.06534 5.06534 5.06534 5.06534 5.06534 5.06534 5.06534 5.06534 5.06534 5.06534 5.06534 5.06534 5.06534 5.06534 5.06534 5.06534 5.06534 5.06534 5.06534 5.06534 5.06534 5.06534 5.06534 5.06534 5.06534 5.06534 5.06534 5.06534 5.06534 5.06534 5.06534 5.06534 5.06534 5.06534 5.06534 5.06534 5.06534 5.06534 5.06534 5.06534 5.06534 5.06534 5.06534 5.06534 5.06534 5.06534 5.06534 5.06534 5.06534 5.06534 5.06534 5.06534 5.06534 5.06534 5.06534 5.06534 5.06534 5.06534 5.06534 5.06534 5.06534 5.06534 5.06534 5.06534 5.06534 5.06534 5.06534 5.06534 5.06534 5.06534 5.06534 5.06534 5.06534 5.06534 5.06534 5.06534 5.06534 5.06534 5.06534 5.06534 5.06534 5.06534 5.06534 5.06534 5.06534 5.06534 5.06534 5.06534 5.06534 5.06534 5.06534 5.06534 5.06534 5.06534 5.06534 5.06534 5.06534 5.06534 5.06534 5.06534 5.06534 5.06534 5.06534 5.06534 5.06534 5.06534 5.06534 5.06534 5.06534 5.06534 5.06534 5.06534 5.06534 5.06534 5.06534 5.06534 5.06534 5.06534 5.06534 5.06534 5.06534 5.06534 5.06534 5.06534 5.06534 5.06534 5.06534 5.06534 5.06534 5.06534 5.06534 5.06534 5.06534 5.06534 5.06534 5.06534 5.06534 5.06534 5.06534 5.06534 5.06534 5.06534 5.06534 5.06534 5.06534 5.06534 5.06534 5.06534 5.06534 5.06534 5.06534 5.06534 5.06534 5.06534 5.06534 5.06525 5.06506 5.06509 5.06502 5.06513 5.06549 5.0655 5.06534 5.06531 5.06509 5.06528 5.0651 5.06537 5.06523 5.06506 5.06504 5.06504 5.06502 5.06503 5.06503 5.06503 5.06502 5.06511 5.06515 5.06509 5.06511 5.06534 5.06534 5.06534 5.06534 5.06534 5.06534 5.06534 5.06534 5.06534 5.06534 5.06534 5.06534 5.06534 5.06534 5.06534 5.06534 5.06534 5.06534 5.06534 5.06534 5.06534 5.06534 5.06534 5.06534 5.06534 5.06534 5.06534 5.06534 5.06534 5.06534 5.06534 5.06534 5.06534 5.06534 5.06534 5.06534 5.06534 5.06534 5.06534 5.06534 5.06534 5.06534 5.06534 5.06534 5.06534 5.06534 5.06534 5.06534 5.06534 5.06534 5.06534 5.06534 5.06534 5.06534 5.06534 5.06534 5.06534 5.06534 5.06534 5.06534 5.06534 5.06534 5.06534 5.06534 5.06534 5.06534 5.06534 5.06534 5.06534 5.06534 5.06534 5.06534 5.06534 5.06534 5.06534 5.06534 5.06534 5.06534 5.06534 5.06534 5.06534 5.06534 5.06534 5.06534 5.06534 5.06534 5.06534 5.06534 5.06534 5.06534 5.06534 5.06534 5.06534 5.06534 5.06534 5.06534 5.06534 5.06534 5.06534 5.06534 5.06534 5.06534 5.06534 5.06534 5.06534
6.2763 6.23812 6.05983 6.12973 6.39266 7.77161 7.63577 6.76459 6.51906 6.22403 6.3681 6.56636 6.48996 6.36463 6.2173 6.04012 5.6241 5.51089 5.57875 5.81596 5.33277 5.27602 5.22936 5.21174 5.18629 5.16788 5.15264 5.15064 5.14329 5.13195 5.13426 5.13058 5.12673 5.12418 5.11973 5.11872 5.1137 5.12259 5.12454 5.1049 5.09997 5.09437 5.09196 5.09277 5.09276 5.09444 5.10855 5.09901 5.09961 5.10703 5.13007 5.12896 5.12146 5.11431 5.10468 5.09538 5.08881 5.08444 5.08207 5.07939 5.07798 5.07707 5.07679 5.07654 5.07646 5.07647 5.07648 5.07652 5.07651 5.07661 5.07669 5.07669 5.07669 5.07669 5.07669 5.07669 5.07669 5.07669 5.07669 5.07669 5.07669 5.07669 5.07669 5.07669 5.07669 5.07669 5.07669 5.07669 5.07669 5.07669 5.07669 5.07669 5.07669 5.07669 5.07669 5.07669 5.07669 5.07669 5.07669 5.07669 5.07669 5.07669 5.07669 5.07669 5.07669 5.07669 5.07669 5.07669 5.07669 5.07669 5.07669 5.07669 5.07669 5.07669 5.07669 5.07669 5.07669 5.07669 5.07669 5.07669 5.07669 5.07669 5.07669 5.07669 5.07669 5.07669 5.07669 5.07669 5.07669 5.07669 5.07669 5.07669 5.07669 5.07669 5.07669 5.07669 5.07669 5.07669 5.07669 5.07669 5.07669 5.07669 5.07669 5.07669 5.07669 5.07669 5.07669 5.07669 5.07669 5.07669 5.07669 5.07669 5.07669 5.07669 5.07669 5.07669 5.07669 5.07669 5.07669 5.07669 5.07669 5.07669 5.07669 5.07669 5.07669 5.07669 5.07669 5.07669 5.07669 5.07669 5.07669 5.07669 5.07669 5.07669 5.07669 5.07669 5.07669 5.07669 5.07669 5.07669 5.07669 5.07669 5.07669 5.07669 5.07669 5.07669 5.07669 5.07669 5.07669 5.07669 5.07669 5.07669 5.07669 5.07669 5.07669 5.07669 5.07669 5.07669 5.07669 5.07669 5.07669 5.07669 5.07669 5.07669 5.07669 5.07669 5.07669 5.07669 5.07669 5.07669 5.07669 5.07669 5.07669 5.07669 5.07669 5.07669 5.07669 5.07669 5.07669 5.07669 5.07669 5.07669 5.07669 5.07669 5.07669 5.07669 5.07669 5.07669 5.07669 5.07669 5.07669 5.07669 5.07669 5.07669 5.07669 5.07669 5.07669 5.07669 5.07669 5.07669 5.07669 5.07669 5.07669 5.07669 5.07669 5.07669 5.07669 5.07651 5.07648 5.0765 5.07652 5.07693 5.07693 5.07682 5.07679 5.07678 5.07658 5.0769 5.07659 5.07688 5.07682 5.07656 5.07652 5.07646 5.07647 5.07648 5.07651 5.07652 5.07649 5.07649 5.07648 5.07651 5.07652 5.07648 5.07669 5.07669 5.07669 5.07669 5.07669 5.07669 5.07669 5.07669 5.07669 5.07669 5.07669 5.07669 5.07669 5.07669 5.07669 5.07669 5.07669 5.07669 5.07669 5.07669 5.07669 5.07669 5.07669 5.07669 5.07669 5.07669 5.07669 5.07669 5.07669 5.07669 5.07669 5.07669 5.07669 5.07669 5.07669 5.07669 5.07669 5.07669 5.07669 5.07669 5.07669 5.07669 5.07669 5.07669 5.07669 5.07669 5.07669 5.07669 5.07669 5.07669 5.07669 5.07669 5.07669 5.07669 5.07669 5.07669 5.07669 5.07669 5.07669 5.07669 5.07669 5.07669 5.07669 5.07669 5.07669 5.07669 5.07669 5.07669 5.07669 5.07669 5.07669 5.07669 5.07669 5.07669 5.07669 5.07669 5.07669 5.07669 5.07669 5.07669 5.07669 5.07669 5.07669 5.07669 5.07669 5.07669 5.07669 5.07669 5.07669 5.07669 5.07669 5.07669 5.07669 5.07669 5.07669 5.07669 5.07669 5.07669 5.07669 5.07669 5.07669 5.07669 5.07669 5.07669
6.30446 6.20163 6.37678 6.11478 6.34564 7.23169 7.94392 6.88213 6.31976 6.20381 6.18834 6.35868 6.20884 6.33448 7.44959 6.37024 5.75062 5.52614 5.46691 5.4118 5.50249 5.2724 5.22272 5.20882 5.19073 5.1737 5.16261 5.15771 5.15246 5.14733 5.14336 5.16 5.13958 5.13791 5.13499 5.1303 5.12858 5.12623 5.13927 5.13635 5.12354 5.11047 5.10641 5.10333 5.1052 5.11645 5.11382 5.10681 5.10939 5.11855 5.14603 5.13916 5.13504 5.12353 5.1116 5.10542 5.10207 5.09751 5.09465 5.09284 5.09106 5.09033 5.0899 5.08971 5.08966 5.08967 5.08966 5.08968 5.08973 5.08981 5.08975 5.08981 5.08981 5.08981 5.08981 5.08981 5.08981 5.08981 5.08981 5.08981 5.08981 5.08981 5.08981 5.08981 5.08981 5.08981 5.08981 5.08981 5.08981 5.08981 5.08981 5.08981 5.08981 5.08981 5.08981 5.08981 5.08981 5.08981 5.08981 5.08981 5.08981 5.08981 5.08981 5.08981 5.08981 5.08981 5.08981 5.08981 5.08981 5.08981 5.08981 5.08981 5.08981 5.08981 5.08981 5.08981 5.08981 5.08981 5.08981 5.08981 5.08981 5.08981 5.08981 5.08981 5.08981 5.08981 5.08981 5.08981 5.08981 5.08981 5.08981 5.08981 5.08981 5.08981 5.08981 5.08981 5.08981 5.08981 5.08981 5.08981 5.08981 5.08981 5.08981 5.08981 5.08981 5.08981 5.08981 5.08981 5.08981 5.08981 5.08981 5.08981 5.08981 5.08981 5.08981 5.08981 5.08981 5.08981 5.08981 5.08981 5.08981 5.08981 5.08981 5.08981 5.08981 5.08981 5.08981 5.08981 5.08981 5.08981 5.08981 5.08981 5.08981 5.08981 5.08981 5.08981 5.08981 5.08981 5.08981 5.08981 5.08981 5.08981 5.08981 5.08981 5.08981 5.08981 5.08981 5.08981 5.08981 5.08981 5.08981 5.08981 5.08981 5.08981 5.08981 5.08981 5.08981 5.08981 5.08981 5.08981 5.08981 5.08981 5.08981 5.08981 5.08981 5.08981 5.08981 5.08981 5.08981 5.08981 5.08981 5.08981 5.08981 5.08981 5.08981 5.08981 5.08981 5.08981 5.08981 5.08981 5.08981 5.08981 5.08981 5.08981 5.08981 5.08981 5.08981 5.08981 5.08981 5.08981 5.08981 5.08981 5.08981 5.08981 5.08981 5.08981 5.08981 5.08981 5.08981 5.08981 5.08981 5.08981 5.08981 5.08981 5.08981 5.08981 5.08969 5.08966 5.08966 5.08968 5.08972 5.0898 5.08988 5.08991 5.0899 5.08988 5.08974 5.08973 5.08989 5.09027 5.09011 5.08998 5.08969 5.08973 5.08968 5.08971 5.08974 5.08974 5.08974 5.0897 5.08967 5.08967 5.08967 5.08968 5.08981 5.08981 5.08981 5.08981 5.08981 5.08981 5.08981 5.08981 5.08981 5.08981 5.08981 5.08981 5.08981 5.08981 5.08981 5.08981 5.08981 5.08981 5.08981 5.08981 5.08981 5.08981 5.08981 5.08981 5.08981 5.08981 5.08981 5.08981 5.08981 5.08981 5.08981 5.08981 5.08981 5.08981 5.08981 5.08981 5.08981 5.08981 5.08981 5.08981 5.08981 5.08981 5.08981 5.08981 5.08981 5.08981 5.08981 5.08981 5.08981 5.08981 5.08981 5.08981 5.08981 5.08981 5.08981 5.08981 5.08981 5.08981 5.08981 5.08981 5.08981 5.08981 5.08981 5.08981 5.08981 5.08981 5.08981 5.08981 5.08981 5.08981 5.08981 5.08981 5.08981 5.08981 5.08981 5.08981 5.08981 5.08981 5.08981 5.08981 5.08981 5.08981 5.08981 5.08981 5.08981 5.08981 5.08981 5.08981 5.08981 5.08981 5.08981 5.08981 5.08981 5.08981 5.08981 5.08981 5.08981 5.08981 5.08981 5.08981 5.08981 5.08981 5.08981 5.08981
6.14579 6.14517 6.13363 6.07913 6.31677 6.95035 7.30464 7.38767 6.81031 6.16131 6.04977 6.04435 6.05904 6.21835 6.60472 6.298 6.3143 5.52617 5.42609 5.35974 5.38222 5.42085 5.237 5.20796 5.19799 5.18702 5.18418 5.17891 5.1725 5.16785 5.16626 5.15102 5.14816 5.1465 5.14534 5.14414 5.13922 5.13611 5.14056 5.15274 5.13218 5.12302 5.12537 5.11581 5.1155 5.12248 5.11933 5.11741 5.12179 5.13477 5.15966 5.16107 5.14528 5.13141 5.12563 5.11835 5.11241 5.10914 5.10677 5.10464 5.10329 5.10241 5.10199 5.1018 5.10169 5.10178 5.10171 5.1017 5.10178 5.10178 5.10178 5.10178 5.10178 5.10178 5.10178 5.10178 5.10178 5.10178 5.10178 5.10178 5.10178 5.10178 5.10178 5.10178 5.10178 5.10178 5.10178 5.10178 5.10178 5.10178 5.10178 5.10178 5.10178 5.10178 5.10178 5.10178 5.10178 5.10178 5.10178 5.10178 5.10178 5.10178 5.10178 5.10178 5.10178 5.10178 5.10178 5.10178 5.10178 5.10178 5.10178 5.10178 5.10178 5.10178 5.10178 5.10178 5.10178 5.10178 5.10178 5.10178 5.10178 5.10178 5.10178 5.10178 5.10178 5.10178 5.10178 5.10178 5.10178 5.10178 5.10178 5.10178 5.10178 5.10178 5.10178 5.10178 5.10178 5.10178 5.10178 5.10178 5.10178 5.10178 5.10178 5.10178 5.10178 5.10178 5.10178 5.10178 5.10178 5.10178 5.10178 5.10178 5.10178 5.10178 5.10178 5.10178 5.10178 5.10178 5.10178 5.10178 5.10178 5.10178 5.10178 5.10178 5.10178 5.10178 5.10178 5.10178 5.10178 5.10178 5.10178 5.10178 5.10178 5.10178 5.10178 5.10178 5.10178 5.10178 5.10178 5.10178 5.10178 5.10178 5.10178 5.10178 5.10178 5.10178 5.10178 5.10178 5.10178 5.10178 5.10178 5.10178 5.10178 5.10178 5.10178 5.10178 5.10178 5.10178 5.10178 5.10178 5.10178 5.10178 5.10178 5.10178 5.10178 5.10178 5.10178 5.10178 5.10178 5.10178 5.10178 5.10178 5.10178 5.10178 5.10178 5.10178 5.10178 5.10178 5.10178 5.10178 5.10178 5.10178 5.10178 5.10178 5.10178 5.10178 5.10178 5.10178 5.10178 5.10178 5.10178 5.10178 5.10178 5.10178 5.10178 5.10178 5.10178 5.10178 5.10178 5.10178 5.10178 5.10178 5.10178 5.10178 5.10178 5.10178 5.10178 5.10169 5.1017 5.10171 5.1019 5.10183 5.10171 5.10198 5.10196 5.10182 5.10175 5.10202 5.10206 5.10202 5.10236 5.10196 5.10169 5.10174 5.10174 5.10171 5.10171 5.10171 5.10178 5.1018 5.10169 5.10169 5.10169 5.10169 5.10176 5.10178 5.10178 5.10178 5.10178 5.10178 5.10178 5.10178 5.10178 5.10178 5.10178 5.10178 5.10178 5.10178 5.10178 5.10178 5.10178 5.10178 5.10178 5.10178 5.10178 5.10178 5.10178 5.10178 5.10178 5.10178 5.10178 5.10178 5.10178 5.10178 5.10178 5.10178 5.10178 5.10178 5.10178 5.10178 5.10178 5.10178 5.10178 5.10178 5.10178 5.10178 5.10178 5.10178 5.10178 5.10178 5.10178 5.10178 5.10178 5.10178 5.10178 5.10178 5.10178 5.10178 5.10178 5.10178 5.10178 5.10178 5.10178 5.10178 5.10178 5.10178 5.10178 5.10178 5.10178 5.10178 5.10178 5.10178 5.10178 5.10178 5.10178 5.10178 5.10178 5.10178 5.10178 5.10178 5.10178 5.10178 5.10178 5.10178 5.10178 5.10178 5.10178 5.10178 5.10178 5.10178 5.10178 5.10178 5.10178 5.10178 5.10178 5.10178 5.10178 5.10178 5.10178 5.10178 5.10178 5.10178 5.10178 5.10178 5.10178 5.10178 5.10178 5.10178
6.0849 6.15214 6.09352 6.08265 6.19461 6.82291 6.96132 6.90745 6.60566 6.07191 5.97242 5.9286 6.04472 6.50148 6.65894 7.03596 5.75347 5.54424 5.39355 5.3403 5.31372 5.37787 5.32001 5.22471 5.24685 5.23141 5.229 5.21294 5.19642 5.19783 5.19861 5.16833 5.15831 5.15102 5.15483 5.15227 5.15257 5.14394 5.14412 5.14498 5.14328 5.13442 5.12909 5.1281 5.12644 5.1292 5.12594 5.13074 5.13589 5.1433 5.16997 5.17271 5.15805 5.14389 5.13338 5.13033 5.12488 5.12193 5.11842 5.116 5.11538 5.11466 5.1144 5.11418 5.11401 5.114 5.11404 5.11404 5.11404 5.11404 5.11404 5.11404 5.11404 5.11404 5.11404 5.11404 5.11404 5.11404 5.11404 5.11404 5.11404 5.11404 5.11404 5.11404 5.11404 5.11404 5.11404 5.11404 5.11404 5.11404 5.11404 5.11404 5.11404 5.11404 5.11404 5.11404 5.11404 5.11404 5.11404 5.11404 5.11404 5.11404 5.11404 5.11404 5.11404 5.11404 5.11404 5.11404 5.11404 5.11404 5.11404 5.11404 5.11404 5.11404 5.11404 5.11404 5.11404 5.11404 5.11404 5.11404 5.11404 5.11404 5.11404 5.11404 5.11404 5.11404 5.11404 5.11404 5.11404 5.11404 5.11404 5.11404 5.11404 5.11404 5.11404 5.11404 5.11404 5.11404 5.11404 5.11404 5.11404 5.11404 5.11404 5.11404 5.11404 5.11404 5.11404 5.11404 5.11404 5.11404 5.11404 5.11404 5.11404 5.11404 5.11404 5.11404 5.11404 5.11404 5.11404 5.11404 5.11404 5.11404 5.11404 5.11404 5.11404 5.11404 5.11404 5.11404 5.11404 5.11404 5.11404 5.11404 5.11404 5.11404 5.11404 5.11404 5.11404 5.11404 5.11404 5.11404 5.11404 5.11404 5.11404 5.11404 5.11404 5.11404 5.11404 5.11404 5.11404 5.11404 5.11404 5.11404 5.11404 5.11404 5.11404 5.11404 5.11404 5.11404 5.11404 5.11404 5.11404 5.11404 5.11404 5.11404 5.11404 5.11404 5.11404 5.11404 5.11404 5.11404 5.11404 5.11404 5.11404 5.11404 5.11404 5.11404 5.11404 5.11404 5.11404 5.11404 5.11404 5.11404 5.11404 5.11404 5.11404 5.11404 5.11404 5.11404 5.11404 5.11404 5.11404 5.11404 5.11404 5.11404 5.11404 5.11404 5.11404 5.11404 5.11404 5.11404 5.11404 5.11404 5.11404 5.11404 5.11404 5.11404 5.11404 5.11404 5.11401 5.11403 5.11409 5.11402 5.11418 5.11423 5.11415 5.11423 5.11432 5.11439 5.11439 5.11448 5.11461 5.11449 5.11402 5.11403 5.11406 5.11404 5.11403 5.11403 5.11403 5.11413 5.11416 5.11401 5.11402 5.11401 5.114 5.11404 5.11404 5.11404 5.11404 5.11404 5.11404 5.11404 5.11404 5.11404 5.11404 5.11404 5.11404 5.11404 5.11404 5.11404 5.11404 5.11404 5.11404 5.11404 5.11404 5.11404 5.11404 5.11404 5.11404 5.11404 5.11404 5.11404 5.11404 5.11404 5.11404 5.11404 5.11404 5.11404 5.11404 5.11404 5.11404 5.11404 5.11404 5.11404 5.11404 5.11404 5.11404 5.11404 5.11404 5.11404 5.11404 5.11404 5.11404 5.11404 5.11404 5.11404 5.11404 5.11404 5.11404 5.11404 5.11404 5.11404 5.11404 5.11404 5.11404 5.11404 5.11404 5.11404 5.11404 5.11404 5.11404 5.11404 5.11404 5.11404 5.11404 5.11404 5.11404 5.11404 5.11404 5.11404 5.11404 5.11404 5.11404 5.11404 5.11404 5.11404 5.11404 5.11404 5.11404 5.11404 5.11404 5.11404 5.11404 5.11404 5.11404 5.11404 5.11404 5.11404 5.11404 5.11404 5.11404 5.11404 5.11404 5.11404 5.11404 5.11404 5.11404 5.11404
6.05394 6.27767 6.2408 6.09445 6.67255 6.46713 7.2331 7.06966 6.6087 6.11721 5.93779 5.86221 6.02851 7.767 6.67294 6.40284 5.8579 5.47642 5.39129 5.33284 5.30296 5.28573 5.26665 5.25985 5.27152 5.42664 5.33618 5.26358 5.22947 5.21749 5.19535 5.1844 5.17633 5.17397 5.17027 5.16374 5.15909 5.16017 5.1562 5.15227 5.15193 5.15424 5.14186 5.1482 5.1399 5.14071 5.14663 5.15241 5.14686 5.15567 5.16115 5.18192 5.16692 5.15585 5.14787 5.14525 5.13943 5.13651 5.13276 5.13013 5.12907 5.12891 5.12859 5.12839 5.12824 5.12823 5.12818 5.12818 5.12819 5.12819 5.12819 5.12819 5.12819 5.12819 5.12819 5.12819 5.12819 5.12819 5.12819 5.12819 5.12819 5.12819 5.12819 5.12819 5.12819 5.12819 5.12819 5.12819 5.12819 5.12819 5.12819 5.12819 5.12819 5.12819 5.12819 5.12819 5.12819 5.12819 5.12819 5.12819 5.12819 5.12819 5.12819 5.12819 5.12819 5.12819 5.12819 5.12819 5.12819 5.12819 5.12819 5.12819 5.12819 5.12819 5.12819 5.12819 5.12819 5.12819 5.12819 5.12819 5.12819 5.12819 5.12819 5.12819 5.12819 5.12819 5.12819 5.12819 5.12819 5.12819 5.12819 5.12819 5.12819 5.12819 5.12819 5.12819 5.12819 5.12819 5.12819 5.12819 5.12819 5.12819 5.12819 5.12819 5.12819 5.12819 5.12819 5.12819 5.12819 5.12819 5.12819 5.12819 5.12819 5.12819 5.12819 5.12819 5.12819 5.12819 5.12819 5.12819 5.12819 5.12819 5.12819 5.12819 5.12819 5.12819 5.12819 5.12819 5.12819 5.12819 5.12819 5.12819 5.12819 5.12819 5.12819 5.12819 5.12819 5.12819 5.12819 5.12819 5.12819 5.12819 5.12819 5.12819 5.12819 5.12819 5.12819 5.12819 5.12819 5.12819 5.12819 5.12819 5.12819 5.12819 5.12819 5.12819 5.12819 5.12819 5.12819 5.12819 5.12819 5.12819 5.12819 5.12819 5.12819 5.12819 5.12819 5.12819 5.12819 5.12819 5.12819 5.12819 5.12819 5.12819 5.12819 5.12819 5.12819 5.12819 5.12819 5.12819 5.12819 5.12819 5.12819 5.12819 5.12819 5.12819 5.12819 5.12819 5.12819 5.12819 5.12819 5.12819 5.12819 5.12819 5.12819 5.12819 5.12819 5.12819 5.12819 5.12819 5.12819 5.12819 5.12819 5.12819 5.12819 5.12819 5.12819 5.12819 5.12818 5.12821 5.12822 5.12823 5.12826 5.12832 5.12831 5.12823 5.12848 5.12855 5.12867 5.12871 5.12871 5.12943 5.12887 5.12824 5.12823 5.12826 5.12823 5.12823 5.1282 5.12824 5.12834 5.12824 5.12823 5.12824 5.1282 5.12819 5.12819 5.12819 5.12819 5.12819 5.12819 5.12819 5.12819 5.12819 5.12819 5.12819 5.12819 5.12819 5.12819 5.12819 5.12819 5.12819 5.12819 5.12819 5.12819 5.12819 5.12819 5.12819 5.12819 5.12819 5.12819 5.12819 5.12819 5.12819 5.12819 5.12819 5.12819 5.12819 5.12819 5.12819 5.12819 5.12819 5.12819 5.12819 5.12819 5.12819 5.12819 5.12819 5.12819 5.12819 5.12819 5.12819 5.12819 5.12819 5.12819 5.12819 5.12819 5.12819 5.12819 5.12819 5.12819 5.12819 5.12819 5.12819 5.12819 5.12819 5.12819 5.12819 5.12819 5.12819 5.12819 5.12819 5.12819 5.12819 5.12819 5.12819 5.12819 5.12819 5.12819 5.12819 5.12819 5.12819 5.12819 5.12819 5.12819 5.12819 5.12819 5.12819 5.12819 5.12819 5.12819 5.12819 5.12819 5.12819 5.12819 5.12819 5.12819 5.12819 5.12819 5.12819 5.12819 5.12819 5.12819 5.12819 5.12819 5.12819 5.12819 5.12819
6.13465 6.06214 6.17249 6.21439 6.40282 7.65056 8.21265 8.15274 6.87687 6.24712 5.9439 5.81634 5.82583 7.09625 7.61107 6.20735 5.95808 5.43904 5.36981 5.34348 5.31506 5.30129 5.2963 5.2841 5.36434 5.37302 5.89381 5.32309 5.27419 5.23666 5.21464 5.20601 5.20437 5.19694 5.19616 5.17895 5.17766 5.1691 5.16659 5.1746 5.15964 5.15764 5.155 5.15247 5.1545 5.15651 5.16143 5.16305 5.1567 5.15999 5.17673 5.18992 5.18114 5.16824 5.16068 5.1565 5.15256 5.15238 5.14606 5.14329 5.14221 5.14192 5.14154 5.14143 5.1413 5.14123 5.14111 5.14111 5.1411 5.14109 5.14109 5.14109 5.14109 5.14109 5.14109 5.14109 5.14109 5.14109 5.14109 5.14109 5.14109 5.14109 5.14109 5.14109 5.14109 5.14109 5.14109 5.14109 5.14109 5.14109 5.14109 5.14109 5.14109 5.14109 5.14109 5.14109 5.14109 5.14109 5.14109 5.14109 5.14109 5.14109 5.14109 5.14109 5.14109 5.14109 5.14109 5.14109 5.14109 5.14109 5.14109 5.14109 5.14109 5.14109 5.14109 5.14109 5.14109 5.14109 5.14109 5.14109 5.14109 5.14109 5.14109 5.14109 5.14109 5.14109 5.14109 5.14109 5.14109 5.14109 5.14109 5.14109 5.14109 5.14109 5.14109 5.14109 5.14109 5.14109 5.14109 5.14109 5.14109 5.14109 5.14109 5.14109 5.14109 5.14109 5.14109 5.14109 5.14109 5.14109 5.14109 5.14109 5.14109 5.14109 5.14109 5.14109 5.14109 5.14109 5.14109 5.14109 5.14109 5.14109 5.14109 5.14109 5.14109 5.14109 5.14109 5.14109 5.14109 5.14109 5.14109 5.14109 5.14109 5.14109 5.14109 5.14109 5.14109 5.14109 5.14109 5.14109 5.14109 5.14109 5.14109 5.14109 5.14109 5.14109 5.14109 5.14109 5.14109 5.14109 5.14109 5.14109 5.14109 5.14109 5.14109 5.14109 5.14109 5.14109 5.14109 5.14109 5.14109 5.14109 5.14109 5.14109 5.14109 5.14109 5.14109 5.14109 5.14109 5.14109 5.14109 5.14109 5.14109 5.14109 5.14109 5.14109 5.14109 5.14109 5.14109 5.14109 5.14109 5.14109 5.14109 5.14109 5.14109 5.14109 5.14109 5.14109 5.14109 5.14109 5.14109 5.14109 5.14109 5.14109 5.14109 5.14109 5.14109 5.14109 5.14109 5.14109 5.14109 5.14109 5.14109 5.14109 5.14109 5.14109 5.14109 5.14109 5.14109 5.14111 5.14117 5.1412 5.14121 5.14121 5.14114 5.14128 5.14133 5.14139 5.14154 5.14162 5.14162 5.14253 5.14207 5.14119 5.1412 5.14123 5.14117 5.14109 5.1411 5.14109 5.1412 5.14123 5.14117 5.14119 5.14114 5.14115 5.14109 5.14109 5.14109 5.14109 5.14109 5.14109 5.14109 5.14109 5.14109 5.14109 5.14109 5.14109 5.14109 5.14109 5.14109 5.14109 5.14109 5.14109 5.14109 5.14109 5.14109 5.14109 5.14109 5.14109 5.14109 5.14109 5.14109 5.14109 5.14109 5.14109 5.14109 5.14109 5.14109 5.14109 5.14109 5.14109 5.14109 5.14109 5.14109 5.14109 5.14109 5.14109 5.14109 5.14109 5.14109 5.14109 5.14109 5.14109 5.14109 5.14109 5.14109 5.14109 5.14109 5.14109 5.14109 5.14109 5.14109 5.14109 5.14109 5.14109 5.14109 5.14109 5.14109 5.14109 5.14109 5.14109 5.14109 5.14109 5.14109 5.14109 5.14109 5.14109 5.14109 5.14109 5.14109 5.14109 5.14109 5.14109 5.14109 5.14109 5.14109 5.14109 5.14109 5.14109 5.14109 5.14109 5.14109 5.14109 5.14109 5.14109 5.14109 5.14109 5.14109 5.14109 5.14109 5.14109 5.14109 5.14109 5.14109 5.14109 5.14109 5.14109
6.47264 6.13775 6.43704 6.24126 6.37229 6.32045 6.54983 6.72284 9.35707 8.73144 6.85329 6.11838 5.72761 6.73838 6.71366 5.97827 5.52105 5.55216 5.38976 5.37627 5.39179 5.36747 5.34385 5.33622 5.39746 5.98927 5.47751 5.78715 5.34509 5.67271 5.24692 5.23575 5.27188 5.23068 5.21328 5.19854 5.18614 5.18016 5.17939 5.18701 5.17859 5.17024 5.17048 5.16835 5.16421 5.17302 5.16932 5.17445 5.16813 5.17445 5.18093 5.1862 5.1921 5.1792 5.17308 5.16916 5.16456 5.16095 5.15949 5.15731 5.15604 5.15512 5.15478 5.15453 5.15453 5.15445 5.15438 5.15434 5.15429 5.15429 5.15429 5.15429 5.15429 5.15429 5.15429 5.15429 5.15429 5.15429 5.15429 5.15429 5.15429 5.15429 5.15429 5.15429 5.15429 5.15429 5.15429 5.15429 5.15429 5.15429 5.15429 5.15429 5.15429 5.15429 5.15429 5.15429 5.15429 5.15429 5.15429 5.15429 5.15429 5.15429 5.15429 5.15429 5.15429 5.15429 5.15429 5.15429 5.15429 5.15429 5.15429 5.15429 5.15429 5.15429 5.15429 5.15429 5.15429 5.15429 5.15429 5.15429 5.15429 5.15429 5.15429 5.15429 5.15429 5.15429 5.15429 5.15429 5.15429 5.15429 5.15429 5.15429 5.15429 5.15429 5.15429 5.15429 5.15429 5.15429 5.15429 5.15429 5.15429 5.15429 5.15429 5.15429 5.15429 5.15429 5.15429 5.15429 5.15429 5.15429 5.15429 5.15429 5.15429 5.15429 5.15429 5.15429 5.15429 5.15429 5.15429 5.15429 5.15429 5.15429 5.15429 5.15429 5.15429 5.15429 5.15429 5.15429 5.15429 5.15429 5.15429 5.15429 5.15429 5.15429 5.15429 5.15429 5.15429 5.15429 5.15429 5.15429 5.15429 5.15429 5.15429 5.15429 5.15429 5.15429 5.15429 5.15429 5.15429 5.15429 5.15429 5.15429 5.15429 5.15429 5.15429 5.15429 5.15429 5.15429 5.15429 5.15429 5.15429 5.15429 5.15429 5.15429 5.15429 5.15429 5.15429 5.15429 5.15429 5.15429 5.15429 5.15429 5.15429 5.15429 5.15429 5.15429 5.15429 5.15429 5.15429 5.15429 5.15429 5.15429 5.15429 5.15429 5.15429 5.15429 5.15429 5.15429 5.15429 5.15429 5.15429 5.15429 5.15429 5.15429 5.15429 5.15429 5.15429 5.15429 5.15429 5.15429 5.15429 5.15429 5.15429 5.15429 5.15429 5.15429 5.15429 5.15429 5.15429 5.15435 5.15434 5.15437 5.15447 5.15442 5.15438 5.15447 5.1545 5.15453 5.15466 5.15491 5.155 5.15533 5.15466 5.15447 5.15447 5.1544 5.15429 5.15429 5.15429 5.15429 5.15436 5.15447 5.15452 5.15442 5.1544 5.15436 5.15445 5.15429 5.15429 5.15429 5.15429 5.15429 5.15429 5.15429 5.15429 5.15429 5.15429 5.15429 5.15429 5.15429 5.15429 5.15429 5.15429 5.15429 5.15429 5.15429 5.15429 5.15429 5.15429 5.15429 5.15429 5.15429 5.15429 5.15429 5.15429 5.15429 5.15429 5.15429 5.15429 5.15429 5.15429 5.15429 5.15429 5.15429 5.15429 5.15429 5.15429 5.15429 5.15429 5.15429 5.15429 5.15429 5.15429 5.15429 5.15429 5.15429 5.15429 5.15429 5.15429 5.15429 5.15429 5.15429 5.15429 5.15429 5.15429 5.15429 5.15429 5.15429 5.15429 5.15429 5.15429 5.15429 5.15429 5.15429 5.15429 5.15429 5.15429 5.15429 5.15429 5.15429 5.15429 5.15429 5.15429 5.15429 5.15429 5.15429 5.15429 5.15429 5.15429 5.15429 5.15429 5.15429 5.15429 5.15429 5.15429 5.15429 5.15429 5.15429 5.15429 5.15429 5.15429 5.15429 5.15429 5.15429 5.15429 5.15429 5.15429 5.15429
6.08534 6.07473 6.41266 6.35593 6.32867 6.21576 6.2513 6.35147 6.31083 6.35158 6.2203 5.85393 5.66219 5.61971 5.58637 5.57214 6.33824 5.51716 5.74157 5.45059 5.44038 5.42042 5.42072 5.39227 5.38425 5.46502 5.58956 6.18942 5.55599 5.74842 5.29087 5.26399 5.41125 5.38914 5.25361 5.23263 5.20607 5.19982 5.19319 5.19324 5.19685 5.18783 5.18611 5.18399 5.18675 5.17888 5.18541 5.18541 5.18071 5.18518 5.19004 5.20006 5.2133 5.19835 5.19092 5.18351 5.17943 5.17571 5.17627 5.17299 5.17161 5.1705 5.16995 5.16987 5.1697 5.1697 5.16961 5.16951 5.16951 5.16951 5.16951 5.16951 5.16951 5.16951 5.16951 5.16951 5.16951 5.16951 5.16951 5.16951 5.16951 5.16951 5.16951 5.16951 5.16951 5.16951 5.16951 5.16951 5.16951 5.16951 5.16951 5.16951 5.16951 5.16951 5.16951 5.16951 5.16951 5.16951 5.16951 5.16951 5.16951 5.16951 5.16951 5.16951 5.16951 5.16951 5.16951 5.16951 5.16951 5.16951 5.16951 5.16951 5.16951 5.16951 5.16951 5.16951 5.16951 5.16951 5.16951 5.16951 5.16951 5.16951 5.16951 5.16951 5.16951 5.16951 5.16951 5.16951 5.16951 5.16951 5.16951 5.16951 5.16951 5.16951 5.16951 5.16951 5.16951 5.16951 5.16951 5.16951 5.16951 5.16951 5.16951 5.16951 5.16951 5.16951 5.16951 5.16951 5.16951 5.16951 5.16951 5.16951 5.16951 5.16951 5.16951 5.16951 5.16951 5.16951 5.16951 5.16951 5.16951 5.16951 5.16951 5.16951 5.16951 5.16951 5.16951 5.16951 5.16951 5.16951 5.16951 5.16951 5.16951 5.16951 5.16951 5.16951 5.16951 5.16951 5.16951 5.16951 5.16951 5.16951 5.16951 5.16951 5.16951 5.16951 5.16951 5.16951 5.16951 5.16951 5.16951 5.16951 5.16951 5.16951 5.16951 5.16951 5.16951 5.16951 5.16951 5.16951 5.16951 5.16951 5.16951 5.16951 5.16951 5.16951 5.16951 5.16951 5.16951 5.16951 5.16951 5.16951 5.16951 5.16951 5.16951 5.16951 5.16951 5.16951 5.16951 5.16951 5.16951 5.16951 5.16951 5.16951 5.16951 5.16951 5.16951 5.16951 5.16951 5.16951 5.16951 5.16951 5.16951 5.16951 5.16951 5.16951 5.16951 5.16951 5.16951 5.16951 5.16951 5.16951 5.16951 5.16951 5.16951 5.16951 5.16951 5.16951 5.16951 5.1695 5.16959 5.1695 5.16955 5.16951 5.16952 5.16962 5.16979 5.16983 5.17003 5.17022 5.16991 5.16998 5.16987 5.16971 5.16969 5.1695 5.16949 5.16949 5.16948 5.16948 5.16949 5.16976 5.1697 5.1697 5.16968 5.16973 5.16951 5.16951 5.16951 5.16951 5.16951 5.16951 5.16951 5.16951 5.16951 5.16951 5.16951 5.16951 5.16951 5.16951 5.16951 5.16951 5.16951 5.16951 5.16951 5.16951 5.16951 5.16951 5.16951 5.16951 5.16951 5.16951 5.16951 5.16951 5.16951 5.16951 5.16951 5.16951 5.16951 5.16951 5.16951 5.16951 5.16951 5.16951 5.16951 5.16951 5.16951 5.16951 5.16951 5.16951 5.16951 5.16951 5.16951 5.16951 5.16951 5.16951 5.16951 5.16951 5.16951 5.16951 5.16951 5.16951 5.16951 5.16951 5.16951 5.16951 5.16951 5.16951 5.16951 5.16951 5.16951 5.16951 5.16951 5.16951 5.16951 5.16951 5.16951 5.16951 5.16951 5.16951 5.16951 5.16951 5.16951 5.16951 5.16951 5.16951 5.16951 5.16951 5.16951 5.16951 5.16951 5.16951 5.16951 5.16951 5.16951 5.16951 5.16951 5.16951 5.16951 5.16951 5.16951 5.16951 5.16951 5.16951 5.16951 5.16951 5.16951 5.16951
6.25963 6.09397 6.21575 6.30978 6.46283 6.22176 6.23179 6.80284 6.62241 6.17714 5.77496 5.6914 5.84675 5.62599 5.60156 5.61588 5.76887 6.00534 5.69714 5.54606 5.53877 5.60266 5.98386 5.5594 5.48072 5.48217 5.53844 5.54973 6.089 5.43061 5.32296 5.29923 5.33272 6.71279 5.3115 5.39627 5.23572 5.22616 5.20825 5.20331 5.20102 5.2005 5.19768 5.20234 5.20167 5.19966 5.19435 5.19273 5.20377 5.20302 5.20584 5.21419 5.21761 5.21607 5.20421 5.19771 5.19196 5.18907 5.19 5.1873 5.18509 5.18415 5.18385 5.18358 5.18355 5.18358 5.18365 5.18337 5.18337 5.18337 5.18337 5.18337 5.18337 5.18337 5.18337 5.18337 5.18337 5.18337 5.18337 5.18337 5.18337 5.18337 5.18337 5.18337 5.18337 5.18337 5.18337 5.18337 5.18337 5.18337 5.18337 5.18337 5.18337 5.18337 5.18337 5.18337 5.18337 5.18337 5.18337 5.18337 5.18337 5.18337 5.18337 5.18337 5.18337 5.18337 5.18337 5.18337 5.18337 5.18337 5.18337 5.18337 5.18337 5.18337 5.18337 5.18337 5.18337 5.18337 5.18337 5.18337 5.18337 5.18337 5.18337 5.18337 5.18337 5.18337 5.18337 5.18337 5.18337 5.18337 5.18337 5.18337 5.18337 5.18337 5.18337 5.18337 5.18337 5.18337 5.18337 5.18337 5.18337 5.18337 5.18337 5.18337 5.18337 5.18337 5.18337 5.18337 5.18337 5.18337 5.18337 5.18337 5.18337 5.18337 5.18337 5.18337 5.18337 5.18337 5.18337 5.18337 5.18337 5.18337 5.18337 5.18337 5.18337 5.18337 5.18337 5.18337 5.18337 5.18337 5.18337 5.18337 5.18337 5.18337 5.18337 5.18337 5.18337 5.18337 5.18337 5.18337 5.18337 5.18337 5.18337 5.18337 5.18337 5.18337 5.18337 5.18337 5.18337 5.18337 5.18337 5.18337 5.18337 5.18337 5.18337 5.18337 5.18337 5.18337 5.18337 5.18337 5.18337 5.18337 5.18337 5.18337 5.18337 5.18337 5.18337 5.18337 5.18337 5.18337 5.18337 5.18337 5.18337 5.18337 5.18337 5.18337 5.18337 5.18337 5.18337 5.18337 5.18337 5.18337 5.18337 5.18337 5.18337 5.18337 5.18337 5.18337 5.18337 5.18337 5.18337 5.18337 5.18337 5.18337 5.18337 5.18337 5.18337 5.18337 5.18337 5.18337 5.18337 5.18337 5.18337 5.18337 5.18337 5.18337 5.18337 5.18337 5.18337 5.18337 5.18345 5.18343 5.18337 5.18337 5.18355 5.18362 5.18368 5.18376 5.18385 5.18399 5.18399 5.18381 5.18381 5.18362 5.18359 5.18337 5.18337 5.18333 5.18332 5.18332 5.18333 5.18352 5.18372 5.18365 5.18365 5.18362 5.18358 5.18337 5.18337 5.18337 5.18337 5.18337 5.18337 5.18337 5.18337 5.18337 5.18337 5.18337 5.18337 5.18337 5.18337 5.18337 5.18337 5.18337 5.18337 5.18337 5.18337 5.18337 5.18337 5.18337 5.18337 5.18337 5.18337 5.18337 5.18337 5.18334 5.18347 5.18334 5.18337 5.18337 5.18337 5.18337 5.18337 5.18337 5.18337 5.18337 5.18337 5.18337 5.18337 5.18337 5.18337 5.18337 5.18337 5.18337 5.18337 5.18337 5.18337 5.18337 5.18337 5.18337 5.18337 5.18337 5.18337 5.18337 5.18337 5.18337 5.18337 5.18337 5.18337 5.18337 5.18337 5.18337 5.18337 5.18337 5.18337 5.18337 5.18337 5.18337 5.18337 5.18337 5.18337 5.18337 5.18337 5.18337 5.18337 5.18337 5.18337 5.18337 5.18337 5.18337 5.18337 5.18337 5.18337 5.18337 5.18337 5.18337 5.18337 5.18337 5.18337 5.18337 5.18337 5.18337 5.18337 5.18337 5.18337 5.18337 5.18337 5.18337
6.45736 6.39591 6.2814 6.40537 6.77036 6.73996 6.91935 7.71094 7.7303 6.86974 6.56557 5.93302 6.04231 5.97724 5.63278 5.70982 7.09781 5.99356 5.89439 5.83207 5.96324 5.83784 6.40288 7.31606 5.71074 5.56395 5.65833 5.68512 5.53689 5.54583 5.58578 5.33672 5.35188 5.54104 5.44849 5.29856 5.28056 5.28534 5.23415 5.22738 5.22113 5.21737 5.21249 5.21091 5.21298 5.20835 5.21083 5.2072 5.21417 5.2117 5.21447 5.2223 5.22511 5.22809 5.218 5.21397 5.20628 5.20318 5.20186 5.19981 5.1987 5.19826 5.19806 5.19792 5.19792 5.19788 5.19787 5.1978 5.19754 5.19754 5.19754 5.19754 5.19754 5.19754 5.19754 5.19754 5.19754 5.19754 5.19754 5.19754 5.19754 5.19754 5.19754 5.19754 5.19754 5.19754 5.19754 5.19754 5.19754 5.19754 5.19754 5.19754 5.19754 5.19754 5.19754 5.19754 5.19754 5.19754 5.19754 5.19754 5.19754 5.19754 5.19754 5.19754 5.19754 5.19754 5.19754 5.19754 5.19754 5.19754 5.19754 5.19754 5.19754 5.19754 5.19754 5.19754 5.19754 5.19754 5.19754 5.19754 5.19754 5.19754 5.19754 5.19754 5.19754 5.19754 5.19754 5.19754 5.19754 5.19754 5.19754 5.19754 5.19754 5.19754 5.19754 5.19754 5.19754 5.19754 5.19754 5.19754 5.19754 5.19754 5.19754 5.19754 5.19754 5.19754 5.19754 5.19754 5.19754 5.19754 5.19754 5.19754 5.19754 5.19754 5.19754 5.19754 5.19754 5.19754 5.19754 5.19754 5.19754 5.19754 5.19754 5.19754 5.19754 5.19754 5.19754 5.19754 5.19754 5.19754 5.19754 5.19754 5.19754 5.19754 5.19754 5.19754 5.19754 5.19754 5.19754 5.19754 5.19754 5.19754 5.19754 5.19754 5.19754 5.19754 5.19754 5.19754 5.19754 5.19754 5.19754 5.19754 5.19754 5.19754 5.19754 5.19754 5.19754 5.19754 5.19754 5.19754 5.19754 5.19754 5.19754 5.19754 5.19754 5.19754 5.19754 5.19754 5.19754 5.19754 5.19754 5.19754 5.19754 5.19754 5.19754 5.19754 5.19754 5.19754 5.19754 5.19754 5.19754 5.19754 5.19754 5.19754 5.19754 5.19754 5.19754 5.19754 5.19754 5.19754 5.19754 5.19754 5.19754 5.19754 5.19754 5.19754 5.19754 5.19754 5.19754 5.19754 5.19754 5.19754 5.19754 5.19754 5.19754 5.19754 5.19754 5.19754 5.19754 5.19754 5.19754 5.19754 5.19754 5.19754 5.19784 5.19784 5.19788 5.19788 5.19788 5.19801 5.19797 5.19789 5.19784 5.19773 5.19777 5.1977 5.19755 5.1975 5.19749 5.19749 5.1977 5.19767 5.1977 5.19788 5.19796 5.19788 5.19784 5.19754 5.19754 5.19754 5.19754 5.19754 5.19754 5.19754 5.19754 5.19754 5.19754 5.19754 5.19754 5.19754 5.19754 5.19754 5.19754 5.19754 5.19754 5.19754 5.19754 5.19754 5.19754 5.19754 5.19754 5.19754 5.19754 5.19754 5.19754 5.19754 5.19754 5.19754 5.19752 5.19754 5.19754 5.19754 5.19754 5.19754 5.19754 5.19754 5.19754 5.19754 5.19754 5.19754 5.19754 5.19754 5.19754 5.19754 5.19754 5.19754 5.19754 5.19754 5.19754 5.19754 5.19754 5.19754 5.19754 5.19754 5.19754 5.19754 5.19754 5.19754 5.19754 5.19754 5.19754 5.19754 5.19754 5.19754 5.19754 5.19754 5.19754 5.19754 5.19754 5.19754 5.19754 5.19754 5.19754 5.19754 5.19754 5.19754 5.19754 5.19754 5.19754 5.19754 5.19754 5.19754 5.19754 5.19754 5.19754 5.19754 5.19754 5.19754 5.19754 5.19754 5.19754 5.19754 5.19754 5.19754 5.19754 5.19754 5.19754 5.19754
6.52304 8.21752 6.66903 7.12025 7.34966 6.83458 6.13249 6.02781 6.02022 7.08285 7.23515 6.53073 5.874 7.11462 5.73446 5.76693 7.71154 6.72733 6.42768 5.97704 5.81925 5.81611 6.06706 6.5174 7.62916 5.75483 5.96047 5.57583 5.47321 5.4708 5.58114 5.45685 5.39133 5.59569 5.51962 5.33018 5.30331 5.39766 5.27057 5.25305 5.25664 5.2353 5.23316 5.23295 5.23122 5.23351 5.22932 5.2218 5.22599 5.22865 5.231 5.23058 5.23069 5.24314 5.23676 5.22683 5.22391 5.22005 5.21802 5.21626 5.21547 5.21475 5.21441 5.21447 5.21427 5.21422 5.21441 5.21447 5.21387 5.21387 5.21387 5.21387 5.21387 5.21387 5.21387 5.21387 5.21387 5.21387 5.21387 5.21387 5.21387 5.21387 5.21387 5.21387 5.21387 5.21387 5.21387 5.21387 5.21387 5.21387 5.21387 5.21387 5.21387 5.21387 5.21387 5.21387 5.21387 5.21387 5.21387 5.21387 5.21387 5.21387 5.21387 5.21387 5.21387 5.21387 5.21387 5.21387 5.21387 5.21387 5.21387 5.21387 5.21387 5.21387 5.21387 5.21387 5.21387 5.21387 5.21387 5.21387 5.21387 5.21387 5.21387 5.21387 5.21387 5.21387 5.21387 5.21387 5.21387 5.21387 5.21387 5.21387 5.21387 5.21387 5.21387 5.21387 5.21387 5.21387 5.21387 5.21387 5.21387 5.21387 5.21387 5.21387 5.21387 5.21387 5.21387 5.21387 5.21387 5.21387 5.21387 5.21387 5.21387 5.21387 5.21387 5.21387 5.21387 5.21387 5.21387 5.21387 5.21387 5.21387 5.21387 5.21387 5.21387 5.21387 5.21387 5.21387 5.21387 5.21387 5.21387 5.21387 5.21387 5.21387 5.21387 5.21387 5.21387 5.21387 5.21387 5.21387 5.21387 5.21387 5.21387 5.21387 5.21387 5.21387 5.21387 5.21387 5.21387 5.21387 5.21387 5.21387 5.21387 5.21387 5.21387 5.21387 5.21387 5.21387 5.21387 5.21387 5.21387 5.21387 5.21387 5.21387 5.21387 5.21387 5.21387 5.21387 5.21387 5.21387 5.21387 5.21387 5.21387 5.21387 5.21387 5.21387 5.21387 5.21387 5.21387 5.21387 5.21387 5.21387 5.21387 5.21387 5.21387 5.21387 5.21387 5.21387 5.21387 5.21387 5.21387 5.21387 5.21387 5.21387 5.21387 5.21387 5.21387 5.21387 5.21387 5.21387 5.21387 5.21387 5.21387 5.21387 5.21387 5.21387 5.21387 5.21387 5.21387 5.21387 5.21387 5.21387 5.21387 5.21395 5.21414 5.21418 5.21414 5.21409 5.21414 5.21422 5.21417 5.21431 5.21422 5.21427 5.21427 5.2141 5.21414 5.21402 5.21386 5.21398 5.21402 5.21402 5.21402 5.21406 5.21432 5.21426 5.21427 5.21387 5.21387 5.21387 5.21387 5.21387 5.21387 5.21387 5.21387 5.21387 5.21387 5.21387 5.21387 5.21387 5.21387 5.21387 5.21387 5.21387 5.21387 5.21389 5.21387 5.21387 5.21387 5.21387 5.21387 5.21387 5.21382 5.21387 5.21387 5.21387 5.21387 5.21387 5.21387 5.21477 5.21387 5.21387 5.21387 5.21387 5.21387 5.21387 5.21387 5.21387 5.21387 5.21387 5.21387 5.21387 5.21387 5.21387 5.21387 5.21387 5.21387 5.21387 5.21387 5.21387 5.21387 5.21387 5.21387 5.21387 5.21387 5.21387 5.21387 5.21387 5.21387 5.21387 5.21387 5.21387 5.21387 5.21387 5.21387 5.21387 5.21387 5.21387 5.21387 5.21387 5.21387 5.21387 5.21387 5.21387 5.21387 5.21387 5.21387 5.21387 5.21387 5.21387 5.21387 5.21387 5.21387 5.21387 5.21387 5.21387 5.21387 5.21387 5.21387 5.21387 5.21387 5.21387 5.21387 5.21387 5.21387 5.21387 5.21387 5.21387
6.24155 7.29889 7.36687 7.1608 6.94498 6.54629 5.97928 5.84698 5.79175 5.77727 5.77718 5.79093 6.12818 5.88731 6.65073 5.92248 6.01882 7.73419 6.7504 6.57572 6.03235 5.88301 5.99555 6.3958 6.0903 6.65864 5.76547 5.64524 5.60386 5.53586 5.88288 5.47718 5.44973 5.87769 5.68767 5.35415 5.31427 5.31505 5.29285 5.28182 5.25878 5.25599 5.26077 5.25518 5.25453 5.25073 5.24065 5.23708 5.2422 5.25456 5.242 5.24167 5.2445 5.2548 5.25443 5.24578 5.24223 5.23656 5.23277 5.23056 5.23015 5.22978 5.22957 5.22934 5.22939 5.22922 5.22923 5.22917 5.22903 5.22871 5.22871 5.22871 5.22871 5.22871 5.22871 5.22871 5.22871 5.22871 5.22871 5.22871 5.22871 5.22871 5.22871 5.22871 5.22871 5.22871 5.22871 5.22871 5.22871 5.22871 5.22871 5.22871 5.22871 5.22871 5.22871 5.22871 5.22871 5.22871 5.22871 5.22871 5.22871 5.22871 5.22871 5.22871 5.22871 5.22871 5.22871 5.22871 5.22871 5.22871 5.22871 5.22871 5.22871 5.22871 5.22871 5.22871 5.22871 5.22871 5.22871 5.22871 5.22871 5.22871 5.22871 5.22871 5.22871 5.22871 5.22871 5.22871 5.22871 5.22871 5.22871 5.22871 5.22871 5.22871 5.22871 5.22871 5.22871 5.22871 5.22871 5.22871 5.22871 5.22871 5.22871 5.22871 5.22871 5.22871 5.22871 5.22871 5.22871 5.22871 5.22871 5.22871 5.22871 5.22871 5.22871 5.22871 5.22871 5.22871 5.22871 5.22871 5.22871 5.22871 5.22871 5.22871 5.22871 5.22871 5.22871 5.22871 5.22871 5.22871 5.22871 5.22871 5.22871 5.22871 5.22871 5.22871 5.22871 5.22871 5.22871 5.22871 5.22871 5.22871 5.22871 5.22871 5.22871 5.22871 5.22871 5.22871 5.22871 5.22871 5.22871 5.22871 5.22871 5.22871 5.22871 5.22871 5.22871 5.22871 5.22871 5.22871 5.22871 5.22871 5.22871 5.22871 5.22871 5.22871 5.22871 5.22871 5.22871 5.22871 5.22871 5.22871 5.22871 5.22871 5.22871 5.22871 5.22871 5.22871 5.22871 5.22871 5.22871 5.22871 5.22871 5.22871 5.22871 5.22871 5.22871 5.22871 5.22871 5.22871 5.22871 5.22871 5.22871 5.22871 5.22871 5.22871 5.22871 5.22871 5.22871 5.22871 5.22871 5.22871 5.22871 5.22871 5.22871 5.22871 5.22871 5.22871 5.22871 5.22871 5.22871 5.22871 5.22871 5.22886 5.2289 5.22871 5.22917 5.22912 5.22922 5.22922 5.22917 5.22917 5.22917 5.22922 5.22917 5.22912 5.22898 5.22903 5.22898 5.2289 5.22886 5.2289 5.2289 5.22903 5.22898 5.22903 5.22917 5.22873 5.22871 5.22871 5.22871 5.22871 5.22871 5.22871 5.22871 5.22871 5.22871 5.22871 5.22871 5.22871 5.22871 5.22871 5.22871 5.22871 5.22871 5.22889 5.2289 5.22886 5.22898 5.22871 5.22871 5.22871 5.22871 5.22871 5.22871 5.22871 5.22871 5.22871 5.22871 5.22871 5.22882 5.22871 5.22871 5.22871 5.22871 5.22871 5.22871 5.22871 5.22871 5.22871 5.22871 5.22871 5.22871 5.22871 5.22871 5.22871 5.22871 5.22871 5.22871 5.22871 5.22871 5.22871 5.22871 5.22871 5.22871 5.22871 5.22871 5.22871 5.22871 5.22871 5.22871 5.22871 5.22871 5.22871 5.22871 5.22871 5.22871 5.22871 5.22871 5.22871 5.22871 5.22871 5.22871 5.22871 5.22871 5.22871 5.22871 5.22871 5.22871 5.22871 5.22871 5.22871 5.22871 5.22871 5.22871 5.22871 5.22871 5.22871 5.22871 5.22871 5.22871 5.22871 5.22871 5.22871 5.22871 5.22871 5.22871 5.22871
6.19914 6.29693 7.58727 7.20011 6.1217 6.28468 6.41928 5.83264 5.84724 6.09213 6.3488 6.095 5.98778 7.3662 6.01256 7.47703 6.38173 6.31419 6.86631 6.42758 6.74626 6.17946 5.94448 5.90484 5.86679 5.84297 5.91351 5.71663 5.58393 5.52066 5.52061 5.65668 5.44252 5.56161 5.49514 5.42072 5.3233 5.31113 5.30195 5.28715 5.28292 5.27976 5.27532 5.27027 5.26753 5.27134 5.26485 5.254 5.25426 5.25868 5.25801 5.25403 5.25699 5.26988 5.26219 5.26275 5.25949 5.25506 5.24914 5.24667 5.24528 5.24471 5.24477 5.24479 5.24471 5.24452 5.24429 5.24429 5.24419 5.24388 5.24388 5.24388 5.24388 5.24388 5.24388 5.24388 5.24388 5.24388 5.24388 5.24388 5.24388 5.24388 5.24388 5.24388 5.24388 5.24388 5.24388 5.24388 5.24388 5.24388 5.24388 5.24388 5.24388 5.24388 5.24388 5.24388 5.24388 5.24388 5.24388 5.24388 5.24388 5.24388 5.24388 5.24388 5.24388 5.24388 5.24388 5.24388 5.24388 5.24388 5.24388 5.24388 5.24388 5.24388 5.24388 5.24388 5.24388 5.24388 5.24388 5.24388 5.24388 5.24388 5.24388 5.24388 5.24388 5.24388 5.24388 5.24388 5.24388 5.24388 5.24388 5.24388 5.24388 5.24388 5.24388 5.24388 5.24388 5.24388 5.24388 5.24388 5.24388 5.24388 5.24388 5.24388 5.24388 5.24388 5.24388 5.24388 5.24388 5.24388 5.24388 5.24388 5.24388 5.24388 5.24388 5.24388 5.24388 5.24388 5.24388 5.24388 5.24388 5.24388 5.24388 5.24388 5.24388 5.24388 5.24388 5.24388 5.24388 5.24388 5.24388 5.24388 5.24388 5.24388 5.24388 5.24388 5.24388 5.24388 5.24388 5.24388 5.24388 5.24388 5.24388 5.24388 5.24388 5.24388 5.24388 5.24388 5.24388 5.24388 5.24388 5.24388 5.24388 5.24388 5.24388 5.24388 5.24388 5.24388 5.24388 5.24388 5.24388 5.24388 5.24388 5.24388 5.24388 5.24388 5.24388 5.24388 5.24388 5.24388 5.24388 5.24388 5.24388 5.24388 5.24388 5.24388 5.24388 5.24388 5.24388 5.24388 5.24388 5.24388 5.24388 5.24388 5.24388 5.24388 5.24388 5.24388 5.24388 5.24388 5.24388 5.24388 5.24388 5.24388 5.24388 5.24388 5.24388 5.24388 5.24388 5.24388 5.24388 5.24388 5.24388 5.24388 5.24388 5.24388 5.24388 5.24388 5.24388 5.24388 5.24388 5.24388 5.24388 5.24388 5.24388 5.24414 5.24429 5.24445 5.24452 5.24452 5.24464 5.24446 5.2444 5.24446 5.24434 5.2444 5.2444 5.24419 5.24419 5.24414 5.24409 5.24405 5.24405 5.24419 5.24424 5.24434 5.2444 5.24388 5.24388 5.24388 5.24388 5.24388 5.24388 5.24388 5.24388 5.24388 5.24388 5.24388 5.24388 5.24388 5.24388 5.24388 5.24388 5.244 5.24424 5.24388 5.24388 5.24388 5.24388 5.24388 5.24388 5.24388 5.24388 5.24388 5.24388 5.24388 5.24388 5.24388 5.24388 5.24388 5.24388 5.24388 5.24385 5.24388 5.24388 5.24388 5.24388 5.24388 5.24388 5.24388 5.24388 5.24388 5.24388 5.24388 5.24388 5.24388 5.24388 5.24388 5.24388 5.24388 5.24388 5.24388 5.24388 5.24388 5.24388 5.24388 5.24388 5.24388 5.24388 5.24388 5.24388 5.24388 5.24388 5.24388 5.24388 5.24388 5.24388 5.24388 5.24388 5.24388 5.24388 5.24388 5.24388 5.24388 5.24388 5.24388 5.24388 5.24388 5.24388 5.24388 5.24388 5.24388 5.24388 5.24388 5.24388 5.24388 5.24388 5.24388 5.24388 5.24388 5.24388 5.24388 5.24388 5.24388 5.24388 5.24388 5.24388 5.24388
6.22743 6.22377 8.17207 6.21927 5.97295 6.31169 6.29514 5.87291 6.18945 6.5922 6.96856 6.90466 6.44286 6.26029 6.23371 6.23364 8.0769 7.45518 7.37836 6.85822 6.63831 6.18366 5.98374 5.88828 5.81325 5.75663 5.78582 5.70343 5.62698 5.5983 5.53476 5.99023 5.50349 5.4804 5.496 5.49737 5.34399 5.32946 5.32052 5.31054 5.30598 5.30116 5.29947 5.29234 5.28679 5.28085 5.27742 5.27408 5.27193 5.27452 5.27016 5.27372 5.27039 5.2793 5.27588 5.27788 5.2741 5.27232 5.2674 5.26448 5.26313 5.2628 5.26247 5.26212 5.26205 5.26192 5.2618 5.26174 5.26135 5.26134 5.26134 5.26134 5.26134 5.26134 5.26134 5.26134 5.26134 5.26134 5.26134 5.26134 5.26134 5.26134 5.26134 5.26134 5.26134 5.26134 5.26134 5.26134 5.26134 5.26134 5.26134 5.26134 5.26134 5.26134 5.26134 5.26134 5.26134 5.26134 5.26134 5.26134 5.26134 5.26134 5.26134 5.26134 5.26134 5.26134 5.26134 5.26134 5.26134 5.26134 5.26134 5.26134 5.26134 5.26134 5.26134 5.26134 5.26134 5.26134 5.26134 5.26134 5.26134 5.26134 5.26134 5.26134 5.26134 5.26134 5.26134 5.26134 5.26134 5.26134 5.26134 5.26134 5.26134 5.26134 5.26134 5.26134 5.26134 5.26134 5.26134 5.26134 5.26134 5.26134 5.26134 5.26134 5.26134 5.26134 5.26134 5.26134 5.26134 5.26134 5.26134 5.26134 5.26134 5.26134 5.26134 5.26134 5.26134 5.26134 5.26134 5.26134 5.26134 5.26134 5.26134 5.26134 5.26134 5.26134 5.26134 5.26134 5.26134 5.26134 5.26134 5.26134 5.26134 5.26134 5.26134 5.26134 5.26134 5.26134 5.26134 5.26134 5.26134 5.26134 5.26134 5.26134 5.26134 5.26134 5.26134 5.26134 5.26134 5.26134 5.26134 5.26134 5.26134 5.26134 5.26134 5.26134 5.26134 5.26134 5.26134 5.26134 5.26134 5.26134 5.26134 5.26134 5.26134 5.26134 5.26134 5.26134 5.26134 5.26134 5.26134 5.26134 5.26134 5.26134 5.26134 5.26134 5.26134 5.26134 5.26134 5.26134 5.26134 5.26134 5.26134 5.26134 5.26134 5.26134 5.26134 5.26134 5.26134 5.26134 5.26134 5.26134 5.26134 5.26134 5.26134 5.26134 5.26134 5.26134 5.26134 5.26134 5.26134 5.26134 5.26134 5.26134 5.26134 5.26134 5.26134 5.26134 5.26134 5.26134 5.26134 5.26134 5.26134 5.26134 5.26134 5.26134 5.26185 5.26186 5.26205 5.26187 5.26212 5.26212 5.26193 5.26198 5.26212 5.26198 5.2618 5.26163 5.26163 5.26168 5.26158 5.26158 5.26158 5.26163 5.26168 5.26168 5.26192 5.26134 5.26134 5.26134 5.26134 5.26134 5.26134 5.26134 5.26134 5.26134 5.26134 5.26134 5.26134 5.26134 5.26134 5.26134 5.26134 5.26134 5.26134 5.26134 5.26134 5.26134 5.26134 5.26134 5.26134 5.26134 5.26134 5.26134 5.26134 5.26134 5.26134 5.26134 5.26134 5.26134 5.26134 5.26134 5.26143 5.2613 5.26134 5.26134 5.26134 5.26134 5.26134 5.26134 5.26134 5.26134 5.26134 5.26134 5.26134 5.26134 5.26134 5.26134 5.26134 5.26134 5.26134 5.26134 5.26134 5.26134 5.26134 5.26134 5.26134 5.26134 5.26134 5.26134 5.26134 5.26134 5.26134 5.26134 5.26134 5.26134 5.26134 5.26134 5.26134 5.26134 5.26134 5.26134 5.26134 5.26134 5.26134 5.26134 5.26134 5.26134 5.26134 5.26134 5.26134 5.26134 5.26134 5.26134 5.26134 5.26134 5.26134 5.26134 5.26134 5.26134 5.26134 5.26134 5.26134 5.26134 5.26134 5.26134 5.26134 5.26134
6.26337 6.26022 7.168 6.32046 5.95575 5.90372 6.00305 6.16866 6.47483 6.84454 7.09974 7.07758 6.75929 6.66134 6.18655 6.14693 6.41953 7.21969 7.47658 7.60136 6.46096 6.23661 6.18971 7.32826 5.83201 5.7906 5.73125 5.6721 5.62976 5.82067 5.6566 5.80487 5.96117 5.49702 5.49486 6.02358 5.4199 5.36107 5.34911 5.34556 5.33772 5.32974 5.32333 5.31565 5.30149 5.29359 5.29101 5.29172 5.28521 5.28362 5.28235 5.28313 5.28251 5.28722 5.28859 5.29029 5.28648 5.28555 5.28266 5.28033 5.27923 5.27887 5.27852 5.2782 5.27812 5.27791 5.27777 5.27765 5.27753 5.2772 5.2772 5.2772 5.2772 5.2772 5.2772 5.2772 5.2772 5.2772 5.2772 5.2772 5.2772 5.2772 5.2772 5.2772 5.2772 5.2772 5.2772 5.2772 5.2772 5.2772 5.2772 5.2772 5.2772 5.2772 5.2772 5.2772 5.2772 5.2772 5.2772 5.2772 5.2772 5.2772 5.2772 5.2772 5.2772 5.2772 5.2772 5.2772 5.2772 5.2772 5.2772 5.2772 5.2772 5.2772 5.2772 5.2772 5.2772 5.2772 5.2772 5.2772 5.2772 5.2772 5.2772 5.2772 5.2772 5.2772 5.2772 5.2772 5.2772 5.2772 5.2772 5.2772 5.2772 5.2772 5.2772 5.2772 5.2772 5.2772 5.2772 5.2772 5.2772 5.2772 5.2772 5.2772 5.2772 5.2772 5.2772 5.2772 5.2772 5.2772 5.2772 5.2772 5.2772 5.2772 5.2772 5.2772 5.2772 5.2772 5.2772 5.2772 5.2772 5.2772 5.2772 5.2772 5.2772 5.2772 5.2772 5.2772 5.2772 5.2772 5.2772 5.2772 5.2772 5.2772 5.2772 5.2772 5.2772 5.2772 5.2772 5.2772 5.2772 5.2772 5.2772 5.2772 5.2772 5.2772 5.2772 5.2772 5.2772 5.2772 5.2772 5.2772 5.2772 5.2772 5.2772 5.2772 5.2772 5.2772 5.2772 5.2772 5.2772 5.2772 5.2772 5.2772 5.2772 5.2772 5.2772 5.2772 5.2772 5.2772 5.2772 5.2772 5.2772 5.2772 5.2772 5.2772 5.2772 5.2772 5.2772 5.2772 5.2772 5.2772 5.2772 5.2772 5.2772 5.2772 5.2772 5.2772 5.2772 5.2772 5.2772 5.2772 5.2772 5.2772 5.2772 5.2772 5.2772 5.2772 5.2772 5.2772 5.2772 5.2772 5.2772 5.2772 5.2772 5.2772 5.2772 5.2772 5.2772 5.2772 5.2772 5.2772 5.2772 5.2772 5.2772 5.2772 5.2777 5.27785 5.2781 5.27784 5.27784 5.27784 5.27799 5.27798 5.27806 5.27813 5.27784 5.27758 5.27758 5.27752 5.27747 5.27747 5.27747 5.27752 5.27758 5.27771 5.27778 5.2772 5.2772 5.2772 5.2772 5.2772 5.2772 5.2772 5.2772 5.2772 5.2772 5.2772 5.2772 5.2772 5.2772 5.2772 5.2772 5.2772 5.2772 5.2772 5.2772 5.2772 5.2772 5.2772 5.2772 5.2772 5.2772 5.2772 5.2772 5.2772 5.2772 5.2772 5.2772 5.2772 5.2772 5.52569 5.27667 5.27777 5.2772 5.2772 5.2772 5.2772 5.2772 5.2772 5.2772 5.2772 5.2772 5.2772 5.2772 5.2772 5.2772 5.2772 5.2772 5.2772 5.2772 5.2772 5.2772 5.2772 5.2772 5.2772 5.2772 5.2772 5.2772 5.2772 5.2772 5.2772 5.2772 5.2772 5.2772 5.2772 5.2772 5.2772 5.2772 5.2772 5.2772 5.2772 5.2772 5.2772 5.2772 5.2772 5.2772 5.2772 5.2772 5.2772 5.2772 5.2772 5.2772 5.2772 5.2772 5.2772 5.2772 5.2772 5.2772 5.2772 5.2772 5.2772 5.2772 5.2772 5.2772 5.2772 5.2772 5.2772
6.35303 6.2948 8.08594 6.95131 5.93712 5.91761 5.96275 6.42834 6.67791 7.08314 7.45397 7.61228 7.02726 7.14632 6.38647 6.27264 6.25584 6.41597 6.61522 6.50519 6.38301 6.48609 7.88934 6.79014 5.93686 5.95882 5.72813 5.73016 5.71057 5.7869 6.70857 5.75125 7.93689 5.57892 6.29821 5.86885 5.54506 5.45389 5.43116 5.42536 5.3908 5.36419 5.34718 5.33443 5.32034 5.31259 5.31147 5.31013 5.31081 5.30889 5.30363 5.30268 5.29795 5.29731 5.29977 5.30216 5.301 5.30042 5.29811 5.2961 5.29589 5.29518 5.295 5.29464 5.2944 5.29424 5.29409 5.29395 5.29375 5.29369 5.2934 5.2934 5.2934 5.2934 5.2934 5.2934 5.2934 5.2934 5.2934 5.2934 5.2934 5.2934 5.2934 5.2934 5.2934 5.2934 5.2934 5.2934 5.2934 5.2934 5.2934 5.2934 5.2934 5.2934 5.2934 5.2934 5.2934 5.2934 5.2934 5.2934 5.2934 5.2934 5.2934 5.2934 5.2934 5.2934 5.2934 5.2934 5.2934 5.2934 5.2934 5.2934 5.2934 5.2934 5.2934 5.2934 5.2934 5.2934 5.2934 5.2934 5.2934 5.2934 5.2934 5.2934 5.2934 5.2934 5.2934 5.2934 5.2934 5.2934 5.2934 5.2934 5.2934 5.2934 5.2934 5.2934 5.2934 5.2934 5.2934 5.2934 5.2934 5.2934 5.2934 5.2934 5.2934 5.2934 5.2934 5.2934 5.2934 5.2934 5.2934 5.2934 5.2934 5.2934 5.2934 5.2934 5.2934 5.2934 5.2934 5.2934 5.2934 5.2934 5.2934 5.2934 5.2934 5.2934 5.2934 5.2934 5.2934 5.2934 5.2934 5.2934 5.2934 5.2934 5.2934 5.2934 5.2934 5.2934 5.2934 5.2934 5.2934 5.2934 5.2934 5.2934 5.2934 5.2934 5.2934 5.2934 5.2934 5.2934 5.2934 5.2934 5.2934 5.2934 5.2934 5.2934 5.2934 5.2934 5.2934 5.2934 5.2934 5.2934 5.2934 5.2934 5.2934 5.2934 5.2934 5.2934 5.2934 5.2934 5.2934 5.2934 5.2934 5.2934 5.2934 5.2934 5.2934 5.2934 5.2934 5.2934 5.2934 5.2934 5.2934 5.2934 5.2934 5.2934 5.2934 5.2934 5.2934 5.2934 5.2934 5.2934 5.2934 5.2934 5.2934 5.2934 5.2934 5.2934 5.2934 5.2934 5.2934 5.2934 5.2934 5.2934 5.2934 5.2934 5.2934 5.2934 5.2934 5.2934 5.2934 5.2934 5.2934 5.2934 5.2934 5.2934 5.29381 5.294 5.29397 5.29381 5.29424 5.29409 5.29394 5.29402 5.29409 5.29447 5.29402 5.29381 5.29375 5.29369 5.29363 5.29369 5.29369 5.29369 5.29375 5.29402 5.29388 5.2934 5.2934 5.2934 5.2934 5.2934 5.2934 5.2934 5.2934 5.2934 5.2934 5.2934 5.2934 5.2934 5.2934 5.2934 5.2934 5.2934 5.2934 5.2934 5.2934 5.2934 5.2934 5.2934 5.2934 5.2934 5.2934 5.2934 5.2934 5.2934 5.2934 5.2934 5.2934 5.2934 5.2934 5.2934 5.2938 5.2934 5.2934 5.2934 5.2934 5.2934 5.2934 5.2934 5.2934 5.2934 5.2934 5.2934 5.2934 5.2934 5.2934 5.2934 5.2934 5.2934 5.2934 5.2934 5.2934 5.2934 5.2934 5.2934 5.2934 5.2934 5.2934 5.2934 5.2934 5.2934 5.2934 5.2934 5.2934 5.2934 5.2934 5.2934 5.2934 5.2934 5.2934 5.2934 5.2934 5.2934 5.2934 5.2934 5.2934 5.2934 5.2934 5.2934 5.2934 5.2934 5.2934 5.2934 5.2934 5.2934 5.2934 5.2934 5.2934 5.2934 5.2934 5.2934 5.2934 5.2934 5.2934 5.2934 5.2934 5.2934
6.34034 6.66878 7.41288 7.44815 6.11399 5.96041 6.02936 6.84012 6.91232 7.10096 7.31837 7.28354 7.08352 7.47077 7.78356 6.45849 6.33155 6.4528 6.45119 6.53232 6.89685 6.26587 6.23977 6.26901 6.74683 5.88909 6.25763 6.13353 6.03333 5.9283 5.75059 5.69024 5.77606 5.71961 5.68083 5.71606 5.73859 5.69596 6.27854 5.63767 5.46996 5.40245 5.38155 5.35364 5.34328 5.33578 5.3366 5.33646 5.32521 5.32174 5.32075 5.31886 5.32295 5.31857 5.31603 5.31564 5.3154 5.31592 5.31618 5.31578 5.31491 5.31425 5.31365 5.31355 5.31327 5.31309 5.31277 5.3127 5.31269 5.31238 5.31201 5.31201 5.31201 5.31201 5.31201 5.31201 5.31201 5.31201 5.31201 5.31201 5.31201 5.31201 5.31201 5.31201 5.31201 5.31201 5.31201 5.31201 5.31201 5.31201 5.31201 5.31201 5.31201 5.31201 5.31201 5.31201 5.31201 5.31201 5.31201 5.31201 5.31201 5.31201 5.31201 5.31201 5.31201 5.31201 5.31201 5.31201 5.31201 5.31201 5.31201 5.31201 5.31201 5.31201 5.31201 5.31201 5.31201 5.31201 5.31201 5.31201 5.31201 5.31201 5.31201 5.31201 5.31201 5.31201 5.31201 5.31201 5.31201 5.31201 5.31201 5.31201 5.31201 5.31201 5.31201 5.31201 5.31201 5.31201 5.31201 5.31201 5.31201 5.31201 5.31201 5.31201 5.31201 5.31201 5.31201 5.31201 5.31201 5.31201 5.31201 5.31201 5.31201 5.31201 5.31201 5.31201 5.31201 5.31201 5.31201 5.31201 5.31201 5.31201 5.31201 5.31201 5.31201 5.31201 5.31201 5.31201 5.31201 5.31201 5.31201 5.31201 5.31201 5.31201 5.31201 5.31201 5.31201 5.31201 5.31201 5.31201 5.31201 5.31201 5.31201 5.31201 5.31201 5.31201 5.31201 5.31201 5.31201 5.31201 5.31201 5.31201 5.31201 5.31201 5.31201 5.31201 5.31201 5.31201 5.31201 5.31201 5.31201 5.31201 5.31201 5.31201 5.31201 5.31201 5.31201 5.31201 5.31201 5.31201 5.31201 5.31201 5.31201 5.31201 5.31201 5.31201 5.31201 5.31201 5.31201 5.31201 5.31201 5.31201 5.31201 5.31201 5.31201 5.31201 5.31201 5.31201 5.31201 5.31201 5.31201 5.31201 5.31201 5.31201 5.31201 5.31201 5.31201 5.31201 5.31201 5.31201 5.31201 5.31201 5.31201 5.31201 5.31201 5.31201 5.31201 5.31201 5.31201 5.31201 5.31201 5.31201 5.31201 5.31201 5.31201 5.31201 5.31269 5.31269 5.31262 5.31262 5.31277 5.31285 5.31293 5.31262 5.31292 5.31278 5.31294 5.31248 5.31233 5.31233 5.31226 5.31233 5.31233 5.31233 5.3124 5.3124 5.31255 5.31201 5.31201 5.31201 5.31201 5.31201 5.31201 5.31201 5.31201 5.31201 5.31201 5.31201 5.31201 5.31201 5.31201 5.31201 5.31201 5.31201 5.31201 5.31201 5.31201 5.31201 5.31201 5.31201 5.31201 5.31201 5.31201 5.31201 5.31201 5.31201 5.31201 5.31201 5.31201 5.31201 5.31201 5.31226 5.31201 5.31201 5.31201 5.31201 5.31201 5.31201 5.31201 5.31201 5.31201 5.31201 5.31201 5.31201 5.31201 5.31201 5.31201 5.31201 5.31201 5.31201 5.31201 5.31201 5.31201 5.31201 5.31201 5.31201 5.31201 5.31201 5.31201 5.31201 5.31201 5.31201 5.31201 5.31201 5.31201 5.31201 5.31201 5.31201 5.31201 5.31201 5.31201 5.31201 5.31201 5.31201 5.31201 5.31201 5.31201 5.31201 5.31201 5.31201 5.31201 5.31201 5.31201 5.31201 5.31201 5.31201 5.31201 5.31201 5.31201 5.31201 5.31201 5.31201 5.31201 5.31201 5.31201 5.31201 5.31201 5.31201
6.3355 6.36774 6.66821 6.69436 7.2957 6.62809 6.08356 6.66535 7.13328 6.86128 6.81095 6.81652 7.17051 7.00652 7.42556 7.35566 6.51032 6.48948 6.66026 8.01195 7.12444 6.31292 6.1314 6.07702 6.14262 6.08944 6.31284 6.10849 6.03265 6.16725 6.10239 7.54366 5.67198 5.60905 5.66433 5.56452 5.60782 5.75642 6.3273 5.92591 5.62218 5.4588 5.41028 5.38225 5.36803 5.35669 5.34931 5.34573 5.34259 5.34131 5.33897 5.33879 5.33961 5.33652 5.33611 5.33341 5.33371 5.33526 5.33212 5.33163 5.33141 5.33129 5.33108 5.33057 5.33018 5.33017 5.33009 5.32957 5.32949 5.32957 5.32892 5.32892 5.32892 5.32892 5.32892 5.32892 5.32892 5.32892 5.32892 5.32892 5.32892 5.32892 5.32892 5.32892 5.32892 5.32892 5.32892 5.32892 5.32892 5.32892 5.32892 5.32892 5.32892 5.32892 5.32892 5.32892 5.32892 5.32892 5.32892 5.32892 5.32892 5.32892 5.32892 5.32892 5.32892 5.32892 5.32892 5.32892 5.32892 5.32892 5.32892 5.32892 5.32892 5.32892 5.32892 5.32892 5.32892 5.32892 5.32892 5.32892 5.32892 5.32892 5.32892 5.32892 5.32892 5.32892 5.32892 5.32892 5.32892 5.32892 5.32892 5.32892 5.32892 5.32892 5.32892 5.32892 5.32892 5.32892 5.32892 5.32892 5.32892 5.32892 5.32892 5.32892 5.32892 5.32892 5.32892 5.32892 5.32892 5.32892 5.32892 5.32892 5.32892 5.32892 5.32892 5.32892 5.32892 5.32892 5.32892 5.32892 5.32892 5.32892 5.32892 5.32892 5.32892 5.32892 5.32892 5.32892 5.32892 5.32892 5.32892 5.32892 5.32892 5.32892 5.32892 5.32892 5.32892 5.32892 5.32892 5.32892 5.32892 5.32892 5.32892 5.32892 5.32892 5.32892 5.32892 5.32892 5.32892 5.32892 5.32892 5.32892 5.32892 5.32892 5.32892 5.32892 5.32892 5.32892 5.32892 5.32892 5.32892 5.32892 5.32892 5.32892 5.32892 5.32892 5.32892 5.32892 5.32892 5.32892 5.32892 5.32892 5.32892 5.32892 5.32892 5.32892 5.32892 5.32892 5.32892 5.32892 5.32892 5.32892 5.32892 5.32892 5.32892 5.32892 5.32892 5.32892 5.32892 5.32892 5.32892 5.32892 5.32892 5.32892 5.32892 5.32892 5.32892 5.32892 5.32892 5.32892 5.32892 5.32892 5.32892 5.32892 5.32892 5.32892 5.32892 5.32892 5.32892 5.32892 5.32892 5.32892 5.32892 5.32892 5.32892 5.32892 5.32912 5.32973 5.32966 5.32949 5.32957 5.32991 5.32949 5.32973 5.32941 5.32942 5.32941 5.32934 5.32926 5.32934 5.32941 5.32934 5.32927 5.32933 5.32934 5.3294 5.32958 5.32892 5.32892 5.32892 5.32892 5.32892 5.32892 5.32892 5.32892 5.32892 5.32892 5.32892 5.32892 5.32892 5.32892 5.32892 5.32892 5.32892 5.32892 5.32892 5.32892 5.32892 5.32892 5.32892 5.32892 5.32892 5.32892 5.32892 5.32892 5.32892 5.32892 5.32892 5.32892 5.32892 5.32892 5.32905 5.32892 5.32892 5.32892 5.32892 5.32892 5.32892 5.32892 5.32892 5.32892 5.32892 5.32892 5.32892 5.32892 5.32892 5.32892 5.32892 5.32892 5.32892 5.32892 5.32892 5.32892 5.32892 5.32892 5.32892 5.32892 5.32892 5.32892 5.32892 5.32892 5.32892 5.32892 5.32892 5.32892 5.32892 5.32892 5.32892 5.32892 5.32892 5.32892 5.32892 5.32892 5.32892 5.32892 5.32892 5.32892 5.32892 5.32892 5.32892 5.32892 5.32892 5.32892 5.32892 5.32892 5.32892 5.32892 5.32892 5.32892 5.32892 5.32892 5.32892 5.32892 5.32892 5.32892 5.32892 5.32892 5.32892
6.35994 6.35022 6.35016 6.34854 6.34747 6.46157 6.69952 6.55875 6.74735 6.61936 6.58479 6.58665 6.86362 7.80501 7.29298 7.36438 6.73725 6.98711 8.25816 7.57831 7.07121 6.36969 6.14881 6.04732 6.02118 6.09465 6.45939 5.99146 6.23014 6.32688 5.77158 5.77375 6.13064 5.73696 5.55534 5.54215 5.65167 5.68644 5.93597 6.00909 5.86228 5.51026 5.44307 5.41923 5.38346 5.37289 5.36939 5.364 5.36025 5.35825 5.3619 5.35837 5.36151 5.35636 5.35736 5.35303 5.36369 5.3548 5.35038 5.3495 5.34903 5.34867 5.34856 5.34812 5.34801 5.34759 5.34731 5.34703 5.34661 5.34646 5.34623 5.34616 5.34616 5.34616 5.34616 5.34616 5.34616 5.34616 5.34616 5.34616 5.34616 5.34616 5.34616 5.34616 5.34616 5.34616 5.34616 5.34616 5.34616 5.34616 5.34616 5.34616 5.34616 5.34616 5.34616 5.34616 5.34616 5.34616 5.34616 5.34616 5.34616 5.34616 5.34616 5.34616 5.34616 5.34616 5.34616 5.34616 5.34616 5.34616 5.34616 5.34616 5.34616 5.34616 5.34616 5.34616 5.34616 5.34616 5.34616 5.34616 5.34616 5.34616 5.34616 5.34616 5.34616 5.34616 5.34616 5.34616 5.34616 5.34616 5.34616 5.34616 5.34616 5.34616 5.34616 5.34616 5.34616 5.34616 5.34616 5.34616 5.34616 5.34616 5.34616 5.34616 5.34616 5.34616 5.34616 5.34616 5.34616 5.34616 5.34616 5.34616 5.34616 5.34616 5.34616 5.34616 5.34616 5.34616 5.34616 5.34616 5.34616 5.34616 5.34616 5.34616 5.34616 5.34616 5.34616 5.34616 5.34616 5.34616 5.34616 5.34616 5.34616 5.34616 5.34616 5.34616 5.34616 5.34616 5.34616 5.34616 5.34616 5.34616 5.34616 5.34616 5.34616 5.34616 5.34616 5.34616 5.34616 5.34616 5.34616 5.34616 5.34616 5.34616 5.34616 5.34616 5.34616 5.34616 5.34616 5.34616 5.34616 5.34616 5.34616 5.34616 5.34616 5.34616 5.34616 5.34616 5.34616 5.34616 5.34616 5.34616 5.34616 5.34616 5.34616 5.34616 5.34616 5.34616 5.34616 5.34616 5.34616 5.34616 5.34616 5.34616 5.34616 5.34616 5.34616 5.34616 5.34616 5.34616 5.34616 5.34616 5.34616 5.34616 5.34616 5.34616 5.34616 5.34616 5.34616 5.34616 5.34616 5.34616 5.34616 5.34616 5.34616 5.34616 5.34616 5.34616 5.34616 5.34616 5.34616 5.34616 5.34616 5.34616 5.34616 5.34616 5.34616 5.34655 5.34661 5.34687 5.34678 5.34695 5.34685 5.34661 5.34669 5.34677 5.34661 5.34669 5.34661 5.34669 5.34661 5.34653 5.34653 5.34661 5.34661 5.34677 5.34677 5.34616 5.34616 5.34616 5.34616 5.34616 5.34616 5.34616 5.34616 5.34616 5.34616 5.34616 5.34616 5.34616 5.34616 5.34616 5.34616 5.34616 5.34616 5.34616 5.34616 5.34616 5.34616 5.34616 5.34616 5.34616 5.34616 5.34616 5.34616 5.34616 5.34616 5.34616 5.34616 5.34616 5.34638 5.34669 5.34616 5.34616 5.34616 5.34616 5.34616 5.34616 5.34616 5.34616 5.34616 5.34616 5.34616 5.34616 5.34616 5.34616 5.34616 5.34616 5.34616 5.34616 5.34616 5.34616 5.34616 5.34616 5.34616 5.34616 5.34616 5.34616 5.34616 5.34616 5.34616 5.34616 5.34616 5.34616 5.34616 5.34616 5.34616 5.34616 5.34616 5.34616 5.34616 5.34616 5.34616 5.34616 5.34616 5.34616 5.34616 5.34616 5.34616 5.34616 5.34616 5.34616 5.34616 5.34616 5.34616 5.34616 5.34616 5.34616 5.34616 5.34616 5.34616 5.34616 5.34616 5.34616 5.34616 5.34616 5.34616 5.34616
6.38214 6.3774 6.4386 6.36761 6.36751 6.3703 7.07783 6.64795 6.7865 6.42657 6.39459 6.43539 6.89719 6.79314 6.86353 6.89596 6.99579 7.37305 8.07278 8.20562 7.23563 6.40448 6.18263 6.18369 6.00999 5.9545 5.91945 5.92556 5.9423 5.77918 5.71906 5.78066 5.71116 5.85546 5.57262 5.54264 5.54675 5.67712 5.65475 6.0484 5.77149 5.50732 5.45185 5.42372 5.40746 5.396 5.39223 5.38421 5.38752 5.38012 5.39067 5.38389 5.3845 5.38648 5.38197 5.37632 5.38926 5.37874 5.37359 5.37051 5.36913 5.36913 5.36875 5.36816 5.36772 5.3672 5.36709 5.3669 5.36662 5.3662 5.36595 5.36596 5.36596 5.36596 5.36596 5.36596 5.36596 5.36596 5.36596 5.36596 5.36596 5.36596 5.36596 5.36596 5.36596 5.36596 5.36596 5.36596 5.36596 5.36596 5.36596 5.36596 5.36596 5.36596 5.36596 5.36596 5.36596 5.36596 5.36596 5.36596 5.36596 5.36596 5.36596 5.36596 5.36596 5.36596 5.36596 5.36596 5.36596 5.36596 5.36596 5.36596 5.36596 5.36596 5.36596 5.36596 5.36596 5.36596 5.36596 5.36596 5.36596 5.36596 5.36596 5.36596 5.36596 5.36596 5.36596 5.36596 5.36596 5.36596 5.36596 5.36596 5.36596 5.36596 5.36596 5.36596 5.36596 5.36596 5.36596 5.36596 5.36596 5.36596 5.36596 5.36596 5.36596 5.36596 5.36596 5.36596 5.36596 5.36596 5.36596 5.36596 5.36596 5.36596 5.36596 5.36596 5.36596 5.36596 5.36596 5.36596 5.36596 5.36596 5.36596 5.36596 5.36596 5.36596 5.36596 5.36596 5.36596 5.36596 5.36596 5.36596 5.36596 5.36596 5.36596 5.36596 5.36596 5.36596 5.36596 5.36596 5.36596 5.36596 5.36596 5.36596 5.36596 5.36596 5.36596 5.36596 5.36596 5.36596 5.36596 5.36596 5.36596 5.36596 5.36596 5.36596 5.36596 5.36596 5.36596 5.36596 5.36596 5.36596 5.36596 5.36596 5.36596 5.36596 5.36596 5.36596 5.36596 5.36596 5.36596 5.36596 5.36596 5.36596 5.36596 5.36596 5.36596 5.36596 5.36596 5.36596 5.36596 5.36596 5.36596 5.36596 5.36596 5.36596 5.36596 5.36596 5.36596 5.36596 5.36596 5.36596 5.36596 5.36596 5.36596 5.36596 5.36596 5.36596 5.36596 5.36596 5.36596 5.36596 5.36596 5.36596 5.36596 5.36596 5.36596 5.36596 5.36596 5.36596 5.36596 5.36596 5.36596 5.36596 5.36596 5.36596 5.36596 5.36582 5.36653 5.36628 5.36652 5.36672 5.36636 5.36645 5.36644 5.36653 5.36653 5.36654 5.36645 5.36637 5.36637 5.36645 5.36636 5.36628 5.36661 5.36671 5.3669 5.36596 5.36596 5.36596 5.36596 5.36596 5.36596 5.36596 5.36596 5.36596 5.36596 5.36596 5.36596 5.36596 5.36596 5.36596 5.36596 5.36596 5.36596 5.36596 5.36596 5.36596 5.36596 5.36596 5.36596 5.36596 5.36596 5.36596 5.36596 5.36596 5.36596 5.36596 5.36596 5.36596 5.36596 5.36654 5.36596 5.36596 5.36596 5.36596 5.36596 5.36596 5.36596 5.36596 5.36596 5.36596 5.36596 5.36596 5.36596 5.36596 5.36596 5.36596 5.36596 5.36596 5.36596 5.36596 5.36596 5.36596 5.36596 5.36596 5.36596 5.36596 5.36596 5.36596 5.36596 5.36596 5.36596 5.36596 5.36596 5.36596 5.36596 5.36596 5.36596 5.36596 5.36596 5.36596 5.36596 5.36596 5.36596 5.36596 5.36596 5.36596 5.36596 5.36596 5.36596 5.36596 5.36596 5.36596 5.36596 5.36596 5.36596 5.36596 5.36596 5.36596 5.36596 5.36596 5.36596 5.36596 5.36596 5.36596 5.36596 5.36596
6.40397 6.39901 6.39489 6.38925 6.38599 6.38116 6.38274 6.38599 6.38153 6.38428 6.39279 6.40057 6.42117 6.43235 6.50958 6.54651 6.92341 7.17873 7.58871 7.97181 7.35978 6.50076 6.25019 6.25742 6.09646 6.09025 6.03538 5.91698 6.69081 6.30998 6.35206 6.66566 6.65923 5.69438 5.60636 5.57298 5.53521 5.52412 5.55755 5.57028 5.53466 5.48042 5.46016 5.4283 5.42028 5.41442 5.40864 5.40497 5.41234 5.40097 5.40356 5.40571 5.41772 5.4354 5.4059 5.40042 5.41092 5.39983 5.39418 5.38979 5.38713 5.38661 5.38661 5.38613 5.38578 5.38523 5.38492 5.38502 5.38493 5.38445 5.38436 5.38427 5.38393 5.38393 5.38393 5.38393 5.38393 5.38393 5.38393 5.38393 5.38393 5.38393 5.38393 5.38393 5.38393 5.38393 5.38393 5.38393 5.38393 5.38393 5.38393 5.38393 5.38393 5.38393 5.38393 5.38393 5.38393 5.38393 5.38393 5.38393 5.38393 5.38393 5.38393 5.38393 5.38393 5.38393 5.38393 5.38393 5.38393 5.38393 5.38393 5.38393 5.38393 5.38393 5.38393 5.38393 5.38393 5.38393 5.38393 5.38393 5.38393 5.38393 5.38393 5.38393 5.38393 5.38393 5.38393 5.38393 5.38393 5.38393 5.38393 5.38393 5.38393 5.38393 5.38393 5.38393 5.38393 5.38393 5.38393 5.38393 5.38393 5.38393 5.38393 5.38393 5.38393 5.38393 5.38393 5.38393 5.38393 5.38393 5.38393 5.38393 5.38393 5.38393 5.38393 5.38393 5.38393 5.38393 5.38393 5.38393 5.38393 5.38393 5.38393 5.38393 5.38393 5.38393 5.38393 5.38393 5.38393 5.38393 5.38393 5.38393 5.38393 5.38393 5.38393 5.38393 5.38393 5.38393 5.38393 5.38393 5.38393 5.38393 5.38393 5.38393 5.38393 5.38393 5.38393 5.38393 5.38393 5.38393 5.38393 5.38393 5.38393 5.38393 5.38393 5.38393 5.38393 5.38393 5.38393 5.38393 5.38393 5.38393 5.38393 5.38393 5.38393 5.38393 5.38393 5.38393 5.38393 5.38393 5.38393 5.38393 5.38393 5.38393 5.38393 5.38393 5.38393 5.38393 5.38393 5.38393 5.38393 5.38393 5.38393 5.38393 5.38393 5.38393 5.38393 5.38393 5.38393 5.38393 5.38393 5.38393 5.38393 5.38393 5.38393 5.38393 5.38393 5.38393 5.38393 5.38393 5.38393 5.38393 5.38393 5.38393 5.38393 5.38393 5.38393 5.38393 5.38393 5.38393 5.38393 5.38393 5.38393 5.38393 5.38393 5.38393 5.38393 5.38393 5.38393 5.38393 5.38436 5.38444 5.3841 5.38455 5.38463 5.38463 5.38436 5.38436 5.38436 5.38436 5.38436 5.38427 5.38444 5.38462 5.38464 5.38473 5.38393 5.38393 5.38393 5.38393 5.38393 5.38393 5.38393 5.38393 5.38393 5.38393 5.38393 5.38393 5.38393 5.38393 5.38393 5.38393 5.38393 5.38393 5.38393 5.38393 5.38393 5.38393 5.38393 5.38393 5.38393 5.38393 5.38393 5.38393 5.38393 5.38393 5.38393 5.38393 5.38393 5.38393 5.38393 5.38463 5.38393 5.38393 5.38393 5.38393 5.38393 5.38393 5.38393 5.38393 5.38393 5.38393 5.38393 5.38393 5.38393 5.38393 5.38393 5.38393 5.38393 5.38393 5.38393 5.38393 5.38393 5.38393 5.38393 5.38393 5.38393 5.38393 5.38393 5.38393 5.38393 5.38393 5.38393 5.38393 5.38393 5.38393 5.38393 5.38393 5.38393 5.38393 5.38393 5.38393 5.38393 5.38393 5.38393 5.38393 5.38393 5.38393 5.38393 5.38393 5.38393 5.38393 5.38393 5.38393 5.38393 5.38393 5.38393 5.38393 5.38393 5.38393 5.38393 5.38393 5.38393 5.38393 5.38393 5.38393 5.38393 5.38393
