ncols 335
nrows 32
xllcorner -99.9499969497
yllcorner 25.2500000089
cellsize 0.0833333333
NODATA_value -9999
-18.9094 -18.6251 -19.3784 -19.7693 -18.8261 -19.4378 -20.3926 -19.1565 -18.5946 -18.3183 -18.1865 -18.2617 -18.1807 -17.8036 -18.3334 -19.2454 -18.9211 -19.6544 -19.3641 -18.6247 -18.5515 -17.918 -17.4446 -17.1608 -16.6863 -16.3888 -16.175 -16.2876 -15.7616 -15.7418 -16.0315 -15.9677 -15.8925 -15.9126 -15.7637 -15.7734 -15.7823 -15.7903 -15.7976 -15.8044 -15.8107 -15.8165 -15.8221 -15.8274 -15.8325 -15.8374 -15.8423 -15.8471 -15.8519 -15.8567 -15.8615 -15.8664 -15.8714 -15.8766 -15.8819 -15.8873 -15.8929 -15.8987 -15.9046 -15.9108 -15.9171 -15.9237 -15.9304 -15.9373 -15.9445 -15.9518 -15.9593 -15.9669 -15.9747 -15.9827 -15.9908 -15.9991 -16.0074 -16.0159 -16.0244 -16.0329 -16.0415 -16.0501 -16.0587 -16.0673 -16.0757 -16.0841 -16.0924 -16.1006 -16.1085 -16.1163 -16.1238 -16.1311 -16.1381 -16.1447 -16.151 -16.1569 -16.1624 -16.1674 -16.1719 -16.1758 -16.1792 -16.182 -16.1842 -16.1857 -16.1865 -16.1865 -16.1859 -16.1844 -16.182 -16.1789 -16.1749 -16.1699 -16.1641 -16.1573 -16.1495 -16.1408 -16.1311 -16.1204 -16.1087 -16.0959 -16.0822 -16.0675 -16.0517 -16.035 -16.0173 -15.9986 -15.979 -15.9584 -15.9369 -15.9145 -15.8912 -15.8671 -15.8422 -15.8166 -15.7902 -15.763 -15.7353 -15.7068 -15.6779 -15.6483 -15.6183 -15.5878 -15.5568 -15.5255 -15.4939 -15.4619 -15.4297 -15.3973 -15.3648 -15.3321 -15.2993 -15.2665 -15.2337 -15.2009 -15.1682 -15.1356 -15.1032 -15.0709 -15.0389 -15.0072 -14.9757 -14.9446 -14.9139 -14.8835 -14.8536 -14.8242 -14.7952 -14.7668 -14.7389 -14.7116 -14.6849 -14.6589 -14.6335 -14.6088 -14.5848 -14.5616 -14.5391 -14.5174 -14.4965 -14.4764 -14.4571 -14.4388 -14.4212 -14.4046 -14.3889 -14.374 -14.3601 -14.3471 -14.3351 -14.324 -14.3138 -14.3046 -14.2964 -14.2891 -14.2827 -14.2773 -14.2729 -14.2693 -14.2668 -14.2651 -14.2644 -14.2646 -14.2657 -14.2677 -14.2706 -14.2744 -14.279 -14.2844 -14.2907 -14.2977 -14.7665 -14.4977 -14.3233 -14.3332 -14.3438 -14.6742 -14.681 -14.7695 -15.126 -15.1735 -15.2603 -15.609 -15.2423 -15.5422 -15.3367 -15.6113 -15.3127 -15.029 -14.8115 -14.8379 -14.9175 -15.0785 -15.1273 -14.9672 -14.6882 -14.6821 -14.7191 -14.731 -14.4877 -14.4704 -14.4507 -14.4289 -14.4052 -14.38 -14.3533 -14.3256 -14.297 -14.2677 -14.2378 -14.2076 -14.1771 -14.1465 -14.1158 -14.0852 -14.0547 -14.0244 -13.9943 -13.9645 -13.935 -13.9059 -13.8771 -13.8487 -13.8207 -13.7932 -13.766 -13.7393 -13.7131 -13.6873 -13.6619 -13.6369 -13.6124 -13.5884 -13.5647 -13.5415 -13.5188 -13.4964 -13.4745 -13.453 -13.4319 -13.4112 -13.391 -13.3711 -13.3516 -13.3325 -13.3138 -13.2955 -13.2776 -13.26 -13.2428 -13.226 -13.2095 -13.1935 -13.1777 -13.1624 -13.1473 -13.1327 -13.1184 -13.1044 -13.0908 -13.0775 -13.0646 -13.052 -13.0398 -13.0279 -13.0163 -13.005 -12.9941 -12.9835 -12.9732 -12.9633 -12.9536 -12.9443 -12.9353 -12.9267 -12.9183 -12.9102 -12.9024 -12.895 -12.8878 -12.881 -12.8744 -12.8681 -12.8621 -12.8564 -12.851 -12.8458 -12.8409 -12.8363 -12.832 -12.8279 -12.8241 -12.8205 -12.8172 -12.8141 -12.8112 -12.8086 -12.8063 -12.8041 -12.8022
-18.7967 -18.1495 -18.6407 -18.9438 -18.5047 -19.3488 -19.9963 -19.0376 -18.5305 -18.4322 -18.5454 -18.3017 -18.55 -18.293 -18.4946 -19.1589 -20.5012 -19.2685 -18.6667 -18.8926 -18.0549 -17.7727 -17.2242 -16.9353 -16.6641 -16.3704 -16.1902 -16.2346 -16.1411 -16.0254 -16.0143 -15.6874 -15.701 -15.7132 -15.7242 -15.7341 -15.7431 -15.7512 -15.7586 -15.7654 -15.7717 -15.7775 -15.783 -15.7882 -15.7932 -15.7979 -15.8026 -15.8071 -15.8117 -15.8162 -15.8207 -15.8253 -15.83 -15.8347 -15.8396 -15.8446 -15.8497 -15.855 -15.8605 -15.8661 -15.872 -15.878 -15.8841 -15.8905 -15.897 -15.9037 -15.9106 -15.9176 -15.9248 -15.9321 -15.9395 -15.9471 -15.9547 -15.9624 -15.9702 -15.978 -15.9859 -15.9938 -16.0016 -16.0094 -16.0171 -16.0248 -16.0323 -16.0396 -16.0468 -16.0538 -16.0606 -16.0671 -16.0733 -16.0792 -16.0848 -16.0899 -16.0946 -16.0989 -16.1027 -16.106 -16.1087 -16.1108 -16.1124 -16.1132 -16.1134 -16.1129 -16.1117 -16.1097 -16.1069 -16.1032 -16.0988 -16.0935 -16.0872 -16.0801 -16.0721 -16.0631 -16.0532 -16.0423 -16.0305 -16.0177 -16.0039 -15.9892 -15.9735 -15.9569 -15.9393 -15.9207 -15.9013 -15.8809 -15.8597 -15.8376 -15.8147 -15.791 -15.7664 -15.7412 -15.7152 -15.6886 -15.6613 -15.6333 -15.6049 -15.5758 -15.5463 -15.5164 -15.486 -15.4552 -15.4241 -15.3927 -15.3611 -15.3292 -15.2972 -15.265 -15.2328 -15.2005 -15.1681 -15.1358 -15.1036 -15.0714 -15.0394 -15.0076 -14.976 -14.9446 -14.9135 -14.8826 -14.8522 -14.8221 -14.7924 -14.7631 -14.7343 -14.706 -14.6782 -14.651 -14.6243 -14.5982 -14.5728 -14.548 -14.5239 -14.5005 -14.4778 -14.4558 -14.4346 -14.4141 -14.3945 -14.3757 -14.3576 -14.3405 -14.3241 -14.3087 -14.2941 -14.2803 -14.2675 -14.2555 -14.2445 -14.2343 -14.2251 -14.2167 -14.2093 -14.2028 -14.1971 -14.1924 -14.1885 -14.1856 -14.1835 -14.1822 -14.1819 -14.1824 -14.1837 -14.1859 -14.1888 -14.1926 -14.1972 -14.2024 -14.14 -14.4173 -14.2355 -14.2306 -14.2393 -14.3625 -14.8718 -14.9484 -15.0756 -15.5499 -15.2675 -15.5474 -15.2383 -15.548 -15.3706 -15.636 -15.1177 -14.9117 -15.0457 -14.8665 -14.8691 -14.9177 -14.8948 -14.8513 -14.5987 -14.5203 -14.5572 -14.5717 -14.35 -14.334 -14.3158 -14.2958 -14.274 -14.2507 -14.2262 -14.2007 -14.1743 -14.1472 -14.1196 -14.0916 -14.0634 -14.035 -14.0066 -13.9782 -13.9499 -13.9218 -13.8939 -13.8662 -13.8388 -13.8117 -13.785 -13.7586 -13.7326 -13.707 -13.6818 -13.657 -13.6326 -13.6086 -13.585 -13.5618 -13.539 -13.5166 -13.4946 -13.4731 -13.4519 -13.4311 -13.4107 -13.3907 -13.3711 -13.3519 -13.333 -13.3145 -13.2964 -13.2786 -13.2612 -13.2441 -13.2274 -13.211 -13.195 -13.1794 -13.164 -13.149 -13.1344 -13.1201 -13.1061 -13.0924 -13.079 -13.066 -13.0533 -13.0409 -13.0289 -13.0171 -13.0057 -12.9946 -12.9838 -12.9733 -12.9631 -12.9532 -12.9436 -12.9343 -12.9254 -12.9167 -12.9083 -12.9002 -12.8924 -12.8849 -12.8776 -12.8707 -12.864 -12.8576 -12.8515 -12.8457 -12.8401 -12.8348 -12.8298 -12.825 -12.8205 -12.8162 -12.8122 -12.8084 -12.8049 -12.8016 -12.7985 -12.7957 -12.7931 -12.7908 -12.7886 -12.7867 -12.785
-19.2403 -18.9077 -18.1587 -18.5863 -18.0756 -19.4511 -19.5884 -19.3705 -18.8183 -18.6543 -18.4512 -18.4817 -18.6595 -19.1452 -19.0756 -19.7143 -19.4767 -19.6972 -19.1655 -18.4446 -17.9929 -17.5253 -17.1646 -16.8281 -16.5126 -16.307 -16.1251 -16.0318 -16.0291 -15.9124 -15.8567 -15.8976 -15.6585 -15.6709 -15.682 -15.6921 -15.7012 -15.7094 -15.7169 -15.7238 -15.7301 -15.7359 -15.7414 -15.7465 -15.7514 -15.756 -15.7605 -15.7649 -15.7692 -15.7735 -15.7777 -15.782 -15.7864 -15.7908 -15.7953 -15.7999 -15.8046 -15.8095 -15.8145 -15.8197 -15.825 -15.8305 -15.8362 -15.842 -15.848 -15.8541 -15.8604 -15.8668 -15.8733 -15.88 -15.8868 -15.8937 -15.9007 -15.9077 -15.9148 -15.9219 -15.9291 -15.9362 -15.9434 -15.9504 -15.9574 -15.9643 -15.9711 -15.9778 -15.9842 -15.9905 -15.9965 -16.0023 -16.0078 -16.0129 -16.0177 -16.0222 -16.0262 -16.0298 -16.0329 -16.0355 -16.0376 -16.0391 -16.04 -16.0403 -16.0399 -16.0389 -16.0371 -16.0346 -16.0314 -16.0273 -16.0224 -16.0167 -16.0102 -16.0028 -15.9945 -15.9853 -15.9752 -15.9641 -15.9522 -15.9393 -15.9255 -15.9108 -15.8951 -15.8785 -15.861 -15.8427 -15.8234 -15.8033 -15.7823 -15.7605 -15.7379 -15.7145 -15.6904 -15.6655 -15.6399 -15.6137 -15.5869 -15.5594 -15.5315 -15.5029 -15.4739 -15.4445 -15.4146 -15.3844 -15.3538 -15.3229 -15.2918 -15.2605 -15.229 -15.1973 -15.1655 -15.1337 -15.1018 -15.07 -15.0382 -15.0065 -14.9749 -14.9434 -14.9121 -14.8811 -14.8502 -14.8197 -14.7895 -14.7596 -14.7301 -14.701 -14.6724 -14.6442 -14.6165 -14.5892 -14.5626 -14.5365 -14.511 -14.4861 -14.4618 -14.4382 -14.4152 -14.393 -14.3714 -14.3506 -14.3305 -14.3112 -14.2927 -14.2749 -14.258 -14.2419 -14.2265 -14.2121 -14.1984 -14.1856 -14.1736 -14.1625 -14.1522 -14.1428 -14.1342 -14.1265 -14.1197 -14.1136 -14.1085 -14.1041 -14.1006 -14.0979 -14.0961 -14.095 -14.0947 -14.0952 -14.0965 -14.0985 -14.1013 -14.1048 -14.1089 -14.0889 -14.1193 -14.1253 -14.1092 -14.5026 -14.8265 -14.9127 -15.0335 -15.1419 -15.1802 -15.1725 -15.0043 -15.1715 -15.3071 -15.205 -14.894 -14.8321 -15.0465 -14.7294 -14.7304 -14.7553 -14.7551 -14.7524 -14.5265 -14.4244 -14.4605 -14.4953 -14.4133 -14.1942 -14.1776 -14.1592 -14.1393 -14.118 -14.0956 -14.0722 -14.0481 -14.0233 -13.998 -13.9723 -13.9464 -13.9204 -13.8943 -13.8682 -13.8422 -13.8163 -13.7906 -13.7651 -13.7399 -13.715 -13.6904 -13.6661 -13.6421 -13.6185 -13.5953 -13.5724 -13.5499 -13.5278 -13.506 -13.4846 -13.4636 -13.443 -13.4227 -13.4028 -13.3833 -13.3641 -13.3453 -13.3268 -13.3087 -13.2909 -13.2735 -13.2564 -13.2396 -13.2232 -13.2071 -13.1913 -13.1758 -13.1607 -13.1459 -13.1314 -13.1172 -13.1033 -13.0897 -13.0764 -13.0634 -13.0508 -13.0384 -13.0263 -13.0145 -13.0031 -12.9919 -12.981 -12.9704 -12.9601 -12.95 -12.9403 -12.9308 -12.9217 -12.9128 -12.9042 -12.8958 -12.8878 -12.88 -12.8725 -12.8653 -12.8583 -12.8516 -12.8451 -12.839 -12.8331 -12.8274 -12.822 -12.8169 -12.812 -12.8073 -12.8029 -12.7988 -12.7949 -12.7912 -12.7877 -12.7845 -12.7815 -12.7787 -12.7762 -12.7739 -12.7717 -12.7698 -12.7681 -12.7666
-19.6105 -19.321 -18.945 -18.1517 -17.754 -18.055 -19.3355 -18.8442 -19.3185 -19.0243 -18.79 -19.2555 -19.4493 -19.8677 -20.3607 -20.4809 -19.7284 -19.16 -18.4873 -18.0632 -17.7338 -17.2853 -16.9019 -16.5869 -16.3614 -16.1345 -15.9962 -15.8794 -15.8528 -15.8956 -15.8202 -15.6295 -15.779 -15.6317 -15.643 -15.6532 -15.6624 -15.6708 -15.6784 -15.6853 -15.6917 -15.6975 -15.703 -15.7081 -15.7129 -15.7175 -15.7218 -15.7261 -15.7302 -15.7343 -15.7383 -15.7424 -15.7464 -15.7505 -15.7547 -15.759 -15.7633 -15.7678 -15.7724 -15.7772 -15.782 -15.7871 -15.7922 -15.7975 -15.803 -15.8086 -15.8143 -15.8201 -15.8261 -15.8322 -15.8384 -15.8446 -15.851 -15.8574 -15.8638 -15.8703 -15.8768 -15.8832 -15.8897 -15.896 -15.9024 -15.9086 -15.9146 -15.9206 -15.9263 -15.9319 -15.9372 -15.9423 -15.9471 -15.9515 -15.9557 -15.9594 -15.9628 -15.9657 -15.9682 -15.9702 -15.9716 -15.9725 -15.9729 -15.9726 -15.9717 -15.9701 -15.9679 -15.9649 -15.9612 -15.9567 -15.9515 -15.9454 -15.9385 -15.9308 -15.9223 -15.9129 -15.9026 -15.8914 -15.8793 -15.8664 -15.8525 -15.8378 -15.8222 -15.8057 -15.7883 -15.7701 -15.751 -15.7311 -15.7103 -15.6888 -15.6665 -15.6434 -15.6197 -15.5952 -15.57 -15.5442 -15.5178 -15.4908 -15.4633 -15.4352 -15.4067 -15.3778 -15.3484 -15.3187 -15.2886 -15.2582 -15.2276 -15.1968 -15.1657 -15.1345 -15.1032 -15.0719 -15.0405 -15.009 -14.9777 -14.9463 -14.9151 -14.884 -14.8531 -14.8223 -14.7918 -14.7615 -14.7315 -14.7019 -14.6726 -14.6436 -14.6151 -14.587 -14.5593 -14.5321 -14.5054 -14.4793 -14.4536 -14.4286 -14.4041 -14.3803 -14.3571 -14.3345 -14.3127 -14.2914 -14.2709 -14.2511 -14.2321 -14.2137 -14.1962 -14.1793 -14.1633 -14.148 -14.1335 -14.1198 -14.1069 -14.0948 -14.0835 -14.073 -14.0633 -14.0543 -14.0462 -14.0389 -14.0323 -14.0266 -14.0216 -14.0174 -14.014 -14.0113 -14.0094 -14.0082 -14.0077 -14.008 -14.0089 -14.0105 -14.0128 -14.0156 -14.0191 -14.0916 -14.3011 -14.2637 -14.5114 -14.7284 -15.0067 -15.0176 -14.9286 -14.9156 -14.7141 -14.9067 -14.7358 -14.9803 -14.8827 -14.7032 -14.6558 -14.6634 -14.4832 -14.6164 -14.6379 -14.637 -14.4773 -14.3033 -14.2509 -14.3108 -14.2752 -14.0573 -14.042 -14.0252 -14.0071 -13.9878 -13.9675 -13.9463 -13.9243 -13.9018 -13.8789 -13.8556 -13.8321 -13.8084 -13.7847 -13.7609 -13.7373 -13.7137 -13.6903 -13.6671 -13.6442 -13.6215 -13.599 -13.5769 -13.555 -13.5335 -13.5123 -13.4915 -13.4709 -13.4507 -13.4309 -13.4113 -13.3921 -13.3733 -13.3547 -13.3365 -13.3187 -13.3011 -13.2839 -13.267 -13.2504 -13.2341 -13.2181 -13.2024 -13.1871 -13.172 -13.1572 -13.1427 -13.1285 -13.1146 -13.101 -13.0877 -13.0746 -13.0618 -13.0493 -13.0371 -13.0252 -13.0135 -13.0021 -12.991 -12.9802 -12.9696 -12.9593 -12.9492 -12.9395 -12.93 -12.9207 -12.9117 -12.903 -12.8946 -12.8864 -12.8784 -12.8707 -12.8633 -12.8561 -12.8492 -12.8426 -12.8362 -12.83 -12.8241 -12.8184 -12.813 -12.8078 -12.8028 -12.7981 -12.7936 -12.7894 -12.7854 -12.7816 -12.778 -12.7747 -12.7715 -12.7686 -12.7659 -12.7634 -12.7612 -12.7591 -12.7572 -12.7555 -12.754 -12.7527
-20.2837 -19.0941 -18.7596 -18.3239 -18.1349 -18.2476 -18.2822 -18.4735 -19.5966 -18.9329 -19.0165 -19.5997 -21.007 -20.9838 -20.6065 -20.2151 -19.6071 -18.9054 -18.3007 -17.807 -17.4895 -17.0188 -16.6819 -16.3667 -16.231 -16.0278 -15.823 -15.7957 -15.7684 -15.7193 -15.7577 -15.6357 -15.5805 -15.593 -15.6044 -15.6146 -15.624 -15.6325 -15.6402 -15.6472 -15.6536 -15.6596 -15.665 -15.6701 -15.6749 -15.6794 -15.6837 -15.6878 -15.6918 -15.6957 -15.6996 -15.7034 -15.7072 -15.711 -15.7149 -15.7189 -15.7229 -15.727 -15.7313 -15.7356 -15.7401 -15.7447 -15.7494 -15.7542 -15.7592 -15.7642 -15.7694 -15.7748 -15.7802 -15.7857 -15.7913 -15.797 -15.8027 -15.8085 -15.8143 -15.8202 -15.826 -15.8318 -15.8376 -15.8433 -15.849 -15.8545 -15.8599 -15.8652 -15.8703 -15.8751 -15.8798 -15.8842 -15.8883 -15.8921 -15.8956 -15.8987 -15.9015 -15.9038 -15.9056 -15.907 -15.9079 -15.9082 -15.908 -15.9072 -15.9058 -15.9037 -15.901 -15.8975 -15.8934 -15.8886 -15.8829 -15.8766 -15.8694 -15.8614 -15.8526 -15.843 -15.8325 -15.8212 -15.809 -15.796 -15.7822 -15.7674 -15.7518 -15.7354 -15.7181 -15.7 -15.6811 -15.6614 -15.6409 -15.6196 -15.5976 -15.5749 -15.5514 -15.5273 -15.5025 -15.4771 -15.4511 -15.4245 -15.3975 -15.3699 -15.3418 -15.3133 -15.2844 -15.2552 -15.2256 -15.1957 -15.1655 -15.1351 -15.1046 -15.0739 -15.043 -15.0121 -14.9811 -14.9501 -14.9191 -14.8881 -14.8573 -14.8265 -14.7959 -14.7654 -14.7352 -14.7052 -14.6754 -14.6459 -14.6168 -14.588 -14.5595 -14.5315 -14.5038 -14.4766 -14.4499 -14.4237 -14.398 -14.3728 -14.3481 -14.324 -14.3006 -14.2777 -14.2554 -14.2338 -14.2128 -14.1925 -14.1729 -14.154 -14.1358 -14.1182 -14.1014 -14.0854 -14.07 -14.0554 -14.0415 -14.0284 -14.016 -14.0044 -13.9935 -13.9833 -13.9739 -13.9652 -13.9573 -13.9501 -13.9437 -13.9379 -13.9329 -13.9286 -13.9249 -13.922 -13.9197 -13.9181 -13.9172 -13.9168 -13.9171 -13.918 -13.9194 -14.1223 -14.2021 -14.1543 -14.4746 -14.8226 -14.8265 -14.763 -14.748 -14.7484 -14.5806 -14.831 -14.6024 -14.8273 -14.7919 -14.5761 -14.5267 -14.3726 -14.3889 -14.4564 -14.5013 -14.5206 -14.45 -14.2114 -14.2271 -14.1492 -14.1173 -14.1714 -13.9065 -13.8913 -13.8749 -13.8575 -13.8392 -13.8202 -13.8005 -13.7803 -13.7597 -13.7388 -13.7177 -13.6964 -13.6751 -13.6538 -13.6325 -13.6114 -13.5904 -13.5695 -13.5488 -13.5284 -13.5082 -13.4883 -13.4686 -13.4492 -13.4301 -13.4113 -13.3928 -13.3745 -13.3566 -13.339 -13.3216 -13.3046 -13.2878 -13.2714 -13.2552 -13.2393 -13.2237 -13.2084 -13.1933 -13.1785 -13.164 -13.1498 -13.1358 -13.1221 -13.1087 -13.0955 -13.0826 -13.0699 -13.0575 -13.0454 -13.0335 -13.0218 -13.0104 -12.9993 -12.9884 -12.9777 -12.9673 -12.9572 -12.9473 -12.9376 -12.9282 -12.919 -12.91 -12.9013 -12.8929 -12.8847 -12.8767 -12.869 -12.8615 -12.8542 -12.8472 -12.8404 -12.8338 -12.8275 -12.8214 -12.8156 -12.8099 -12.8045 -12.7994 -12.7944 -12.7897 -12.7852 -12.7809 -12.7768 -12.773 -12.7694 -12.7659 -12.7627 -12.7597 -12.7569 -12.7543 -12.7519 -12.7497 -12.7477 -12.7459 -12.7443 -12.7428 -12.7415 -12.7405
-20.2807 -20.1537 -19.4129 -18.485 -18.1609 -17.8949 -18.1164 -19.0942 -18.9296 -18.3734 -18.6383 -19.3859 -21.055 -20.7267 -20.5305 -19.8615 -19.0254 -18.5123 -18.2026 -17.6825 -17.2786 -16.9634 -16.5343 -16.2827 -16.0572 -15.8736 -15.7601 -15.8018 -15.7521 -15.677 -15.6055 -15.5268 -15.6089 -15.553 -15.5644 -15.5747 -15.5841 -15.5927 -15.6005 -15.6076 -15.6142 -15.6201 -15.6256 -15.6308 -15.6355 -15.64 -15.6442 -15.6483 -15.6521 -15.6559 -15.6596 -15.6632 -15.6669 -15.6705 -15.6741 -15.6778 -15.6815 -15.6853 -15.6892 -15.6932 -15.6973 -15.7014 -15.7057 -15.7101 -15.7146 -15.7192 -15.7239 -15.7287 -15.7336 -15.7386 -15.7437 -15.7488 -15.754 -15.7592 -15.7644 -15.7697 -15.7749 -15.7801 -15.7853 -15.7904 -15.7954 -15.8003 -15.805 -15.8097 -15.8141 -15.8183 -15.8224 -15.8261 -15.8296 -15.8328 -15.8357 -15.8382 -15.8403 -15.842 -15.8433 -15.8441 -15.8444 -15.8442 -15.8434 -15.8421 -15.8402 -15.8376 -15.8345 -15.8306 -15.8261 -15.8209 -15.8149 -15.8082 -15.8008 -15.7925 -15.7835 -15.7737 -15.7631 -15.7516 -15.7394 -15.7263 -15.7124 -15.6977 -15.6821 -15.6657 -15.6486 -15.6306 -15.6119 -15.5923 -15.572 -15.551 -15.5293 -15.5068 -15.4837 -15.4599 -15.4355 -15.4104 -15.3848 -15.3587 -15.332 -15.3049 -15.2772 -15.2492 -15.2207 -15.1919 -15.1628 -15.1334 -15.1037 -15.0737 -15.0436 -15.0133 -14.9829 -14.9524 -14.9218 -14.8912 -14.8606 -14.83 -14.7994 -14.769 -14.7387 -14.7085 -14.6785 -14.6487 -14.6191 -14.5898 -14.5608 -14.5321 -14.5038 -14.4758 -14.4482 -14.4209 -14.3942 -14.3678 -14.342 -14.3166 -14.2918 -14.2675 -14.2437 -14.2205 -14.1978 -14.1758 -14.1543 -14.1335 -14.1133 -14.0938 -14.0749 -14.0566 -14.0391 -14.0222 -14.0059 -13.9904 -13.9755 -13.9614 -13.9479 -13.9351 -13.923 -13.9116 -13.9009 -13.8909 -13.8816 -13.8729 -13.8649 -13.8576 -13.8509 -13.8449 -13.8395 -13.8348 -13.8307 -13.8272 -13.8243 -13.822 -13.8203 -13.8191 -13.9781 -14.135 -14.0919 -14.2003 -14.3008 -14.3916 -14.4686 -14.4931 -14.4904 -14.473 -14.333 -14.3163 -14.4922 -14.7231 -14.6407 -14.5614 -14.2532 -14.3232 -14.2299 -14.2963 -14.3391 -14.3338 -14.3291 -14.255 -14.0634 -14.0328 -14.0206 -13.9641 -13.7695 -13.7558 -13.7411 -13.7256 -13.7093 -13.6924 -13.6749 -13.657 -13.6388 -13.6203 -13.6016 -13.5828 -13.564 -13.5451 -13.5263 -13.5076 -13.4889 -13.4705 -13.4522 -13.4341 -13.4162 -13.3985 -13.381 -13.3638 -13.3468 -13.3301 -13.3137 -13.2974 -13.2815 -13.2658 -13.2503 -13.2351 -13.2202 -13.2055 -13.191 -13.1768 -13.1629 -13.1491 -13.1356 -13.1224 -13.1094 -13.0966 -13.0841 -13.0718 -13.0597 -13.0478 -13.0362 -13.0248 -13.0136 -13.0026 -12.9919 -12.9814 -12.9711 -12.961 -12.9512 -12.9415 -12.9321 -12.9229 -12.9139 -12.9052 -12.8966 -12.8883 -12.8802 -12.8723 -12.8647 -12.8572 -12.85 -12.8429 -12.8361 -12.8296 -12.8232 -12.817 -12.8111 -12.8054 -12.7999 -12.7946 -12.7895 -12.7846 -12.7799 -12.7755 -12.7712 -12.7671 -12.7633 -12.7597 -12.7562 -12.753 -12.7499 -12.7471 -12.7444 -12.7419 -12.7396 -12.7375 -12.7356 -12.7339 -12.7323 -12.7309 -12.7297 -12.7287 -12.7278
-19.5844 -20.3165 -19.1053 -18.4482 -18.6715 -17.8579 -17.8614 -18.54 -18.299 -18.1541 -18.5838 -19.5887 -21.0515 -21.1557 -20.3406 -19.491 -19.0948 -18.5051 -17.9183 -17.5326 -17.1982 -16.8161 -16.4985 -16.2041 -15.9987 -15.8604 -15.6552 -15.4226 -15.5554 -15.6184 -15.4749 -15.4897 -15.5033 -15.5158 -15.5273 -15.5377 -15.5472 -15.5558 -15.5637 -15.5709 -15.5775 -15.5836 -15.5891 -15.5943 -15.599 -15.6035 -15.6077 -15.6117 -15.6155 -15.6191 -15.6227 -15.6262 -15.6296 -15.633 -15.6364 -15.6398 -15.6433 -15.6468 -15.6504 -15.654 -15.6578 -15.6616 -15.6655 -15.6694 -15.6735 -15.6777 -15.6819 -15.6863 -15.6907 -15.6952 -15.6997 -15.7043 -15.709 -15.7136 -15.7183 -15.723 -15.7276 -15.7322 -15.7368 -15.7413 -15.7457 -15.75 -15.7542 -15.7582 -15.762 -15.7657 -15.7691 -15.7722 -15.7751 -15.7777 -15.78 -15.7819 -15.7834 -15.7845 -15.7853 -15.7855 -15.7853 -15.7846 -15.7833 -15.7815 -15.7791 -15.7762 -15.7726 -15.7683 -15.7634 -15.7578 -15.7516 -15.7446 -15.7368 -15.7284 -15.7191 -15.7091 -15.6983 -15.6868 -15.6744 -15.6613 -15.6474 -15.6326 -15.6171 -15.6008 -15.5838 -15.5659 -15.5473 -15.528 -15.5079 -15.4871 -15.4656 -15.4434 -15.4206 -15.3971 -15.3731 -15.3484 -15.3232 -15.2974 -15.2711 -15.2444 -15.2172 -15.1896 -15.1615 -15.1332 -15.1045 -15.0755 -15.0462 -15.0167 -14.987 -14.9571 -14.9271 -14.897 -14.8668 -14.8365 -14.8063 -14.776 -14.7458 -14.7156 -14.6856 -14.6557 -14.6259 -14.5963 -14.567 -14.5378 -14.5089 -14.4803 -14.452 -14.4241 -14.3965 -14.3692 -14.3424 -14.3159 -14.2899 -14.2644 -14.2393 -14.2147 -14.1906 -14.1671 -14.1441 -14.1216 -14.0996 -14.0783 -14.0575 -14.0373 -14.0178 -13.9988 -13.9804 -13.9627 -13.9456 -13.9291 -13.9132 -13.898 -13.8834 -13.8695 -13.8562 -13.8435 -13.8315 -13.8201 -13.8093 -13.7991 -13.7896 -13.7807 -13.7723 -13.7646 -13.7575 -13.751 -13.745 -13.7396 -13.7347 -13.7304 -13.7266 -13.7233 -13.7205 -13.9462 -14.0123 -14.0563 -14.2844 -14.2175 -14.0502 -14.3493 -14.3282 -14.2142 -14.1216 -14.3706 -14.3984 -14.3747 -14.5578 -14.331 -13.9625 -14.0947 -14.0922 -14.0236 -14.043 -14.0157 -14.1458 -14.1629 -13.9497 -13.9179 -13.8853 -13.8759 -13.6581 -13.6231 -13.6101 -13.5964 -13.5821 -13.5673 -13.5521 -13.5365 -13.5206 -13.5045 -13.4883 -13.472 -13.4556 -13.4392 -13.4229 -13.4066 -13.3905 -13.3744 -13.3585 -13.3428 -13.3272 -13.3118 -13.2966 -13.2816 -13.2668 -13.2523 -13.2379 -13.2237 -13.2097 -13.196 -13.1825 -13.1691 -13.156 -13.1431 -13.1304 -13.1179 -13.1056 -13.0935 -13.0816 -13.0699 -13.0584 -13.0471 -13.036 -13.0251 -13.0143 -13.0038 -12.9935 -12.9833 -12.9734 -12.9636 -12.9541 -12.9447 -12.9355 -12.9265 -12.9177 -12.9091 -12.9006 -12.8924 -12.8844 -12.8765 -12.8689 -12.8614 -12.8541 -12.8471 -12.8402 -12.8335 -12.827 -12.8207 -12.8146 -12.8087 -12.803 -12.7975 -12.7921 -12.787 -12.7821 -12.7773 -12.7728 -12.7684 -12.7643 -12.7603 -12.7565 -12.7529 -12.7495 -12.7462 -12.7432 -12.7403 -12.7377 -12.7352 -12.7328 -12.7307 -12.7287 -12.7269 -12.7253 -12.7238 -12.7225 -12.7214 -12.7204 -12.7196 -12.719
-18.9354 -19.0281 -18.9424 -18.2925 -17.8407 -17.7746 -17.6336 -17.9514 -17.6465 -18.1658 -18.6489 -19.2441 -20.8656 -21.0373 -20.2809 -19.4142 -18.6294 -18.3825 -17.8446 -17.5045 -16.9857 -16.4884 -16.33 -16.0792 -15.9655 -15.8277 -15.6227 -15.5039 -15.4058 -15.423 -15.4389 -15.4536 -15.4671 -15.4796 -15.491 -15.5015 -15.5111 -15.5198 -15.5278 -15.535 -15.5417 -15.5478 -15.5534 -15.5586 -15.5634 -15.5678 -15.572 -15.5759 -15.5797 -15.5832 -15.5867 -15.59 -15.5933 -15.5965 -15.5998 -15.603 -15.6062 -15.6094 -15.6127 -15.616 -15.6194 -15.6229 -15.6265 -15.6301 -15.6337 -15.6375 -15.6413 -15.6452 -15.6492 -15.6532 -15.6573 -15.6614 -15.6655 -15.6696 -15.6738 -15.6779 -15.682 -15.6861 -15.6901 -15.694 -15.6979 -15.7016 -15.7052 -15.7086 -15.7118 -15.7149 -15.7177 -15.7203 -15.7226 -15.7246 -15.7263 -15.7277 -15.7287 -15.7293 -15.7294 -15.7292 -15.7285 -15.7273 -15.7255 -15.7233 -15.7204 -15.7171 -15.7131 -15.7084 -15.7032 -15.6973 -15.6907 -15.6834 -15.6754 -15.6667 -15.6573 -15.6471 -15.6362 -15.6245 -15.6121 -15.5989 -15.5849 -15.5702 -15.5547 -15.5385 -15.5215 -15.5038 -15.4853 -15.4662 -15.4463 -15.4257 -15.4045 -15.3826 -15.36 -15.3369 -15.3131 -15.2888 -15.2639 -15.2385 -15.2126 -15.1863 -15.1595 -15.1323 -15.1046 -15.0767 -15.0484 -15.0198 -14.991 -14.9619 -14.9326 -14.9031 -14.8734 -14.8437 -14.8139 -14.784 -14.754 -14.7241 -14.6942 -14.6643 -14.6345 -14.6048 -14.5753 -14.5459 -14.5167 -14.4877 -14.4589 -14.4304 -14.4021 -14.3742 -14.3466 -14.3193 -14.2924 -14.2658 -14.2396 -14.2139 -14.1886 -14.1637 -14.1393 -14.1154 -14.092 -14.069 -14.0466 -14.0247 -14.0033 -13.9825 -13.9622 -13.9425 -13.9234 -13.9048 -13.8868 -13.8693 -13.8525 -13.8362 -13.8205 -13.8054 -13.7908 -13.7769 -13.7635 -13.7507 -13.7384 -13.7268 -13.7157 -13.7051 -13.6951 -13.6857 -13.6767 -13.6684 -13.6605 -13.6531 -13.6463 -13.6399 -13.634 -13.6286 -13.6236 -13.619 -13.866 -13.9079 -13.9974 -13.8764 -14.0822 -14.1255 -14.0537 -14.1203 -14.1852 -14.2277 -14.2262 -14.2709 -14.3383 -14.2741 -13.8595 -13.8715 -13.9152 -13.8896 -13.861 -13.8548 -13.8481 -13.9815 -13.9998 -13.7828 -13.7949 -13.7641 -13.6841 -13.4914 -13.48 -13.4681 -13.4558 -13.4431 -13.43 -13.4167 -13.4032 -13.3896 -13.3758 -13.362 -13.3481 -13.3343 -13.3204 -13.3067 -13.293 -13.2794 -13.2659 -13.2526 -13.2394 -13.2263 -13.2134 -13.2007 -13.1881 -13.1756 -13.1634 -13.1513 -13.1393 -13.1276 -13.116 -13.1045 -13.0933 -13.0822 -13.0712 -13.0604 -13.0498 -13.0394 -13.0291 -13.0189 -13.0089 -12.9991 -12.9894 -12.9799 -12.9706 -12.9614 -12.9524 -12.9435 -12.9348 -12.9262 -12.9178 -12.9096 -12.9015 -12.8936 -12.8858 -12.8782 -12.8708 -12.8635 -12.8564 -12.8495 -12.8427 -12.8361 -12.8297 -12.8234 -12.8173 -12.8114 -12.8056 -12.8001 -12.7947 -12.7894 -12.7844 -12.7795 -12.7748 -12.7703 -12.7659 -12.7617 -12.7577 -12.7539 -12.7502 -12.7467 -12.7434 -12.7402 -12.7372 -12.7344 -12.7318 -12.7293 -12.727 -12.7249 -12.7229 -12.7211 -12.7194 -12.7179 -12.7166 -12.7154 -12.7144 -12.7135 -12.7128 -12.7122 -12.7118
-18.7007 -18.4372 -18.4433 -18.6532 -17.6081 -18.2357 -17.4626 -17.5848 -18.1964 -18.7095 -18.282 -19.0203 -19.4353 -20.6888 -19.868 -19.1583 -18.557 -18.3513 -17.7847 -17.4536 -16.9107 -16.3661 -16.0477 -16.0001 -15.8618 -15.7453 -15.6072 -15.603 -15.5071 -15.4327 -15.4028 -15.4173 -15.4308 -15.4432 -15.4546 -15.4651 -15.4747 -15.4835 -15.4915 -15.4988 -15.5056 -15.5117 -15.5174 -15.5226 -15.5274 -15.5319 -15.536 -15.54 -15.5436 -15.5471 -15.5505 -15.5537 -15.5569 -15.5599 -15.563 -15.566 -15.569 -15.572 -15.575 -15.5781 -15.5812 -15.5843 -15.5875 -15.5908 -15.5941 -15.5975 -15.6009 -15.6044 -15.6079 -15.6115 -15.6151 -15.6187 -15.6224 -15.626 -15.6297 -15.6333 -15.6369 -15.6405 -15.6439 -15.6473 -15.6506 -15.6538 -15.6568 -15.6597 -15.6624 -15.6649 -15.6672 -15.6692 -15.671 -15.6724 -15.6736 -15.6744 -15.6749 -15.675 -15.6747 -15.6739 -15.6727 -15.671 -15.6689 -15.6662 -15.6629 -15.6591 -15.6548 -15.6498 -15.6442 -15.638 -15.6311 -15.6235 -15.6153 -15.6064 -15.5968 -15.5864 -15.5754 -15.5636 -15.5511 -15.5379 -15.5239 -15.5092 -15.4937 -15.4776 -15.4607 -15.4431 -15.4247 -15.4057 -15.386 -15.3657 -15.3447 -15.323 -15.3008 -15.2779 -15.2545 -15.2305 -15.2059 -15.1809 -15.1554 -15.1294 -15.1029 -15.0761 -15.0489 -15.0213 -14.9934 -14.9652 -14.9368 -14.9081 -14.8791 -14.85 -14.8208 -14.7914 -14.7619 -14.7323 -14.7027 -14.673 -14.6434 -14.6138 -14.5843 -14.5548 -14.5255 -14.4962 -14.4672 -14.4383 -14.4096 -14.3812 -14.353 -14.325 -14.2974 -14.27 -14.243 -14.2163 -14.19 -14.164 -14.1385 -14.1133 -14.0886 -14.0643 -14.0404 -14.017 -13.9941 -13.9716 -13.9497 -13.9282 -13.9072 -13.8868 -13.8668 -13.8473 -13.8284 -13.81 -13.7921 -13.7748 -13.758 -13.7417 -13.7259 -13.7106 -13.6959 -13.6817 -13.668 -13.6548 -13.6421 -13.6299 -13.6182 -13.607 -13.5963 -13.586 -13.5762 -13.5669 -13.558 -13.5496 -13.5416 -13.534 -13.5268 -13.52 -13.6502 -13.7126 -13.7277 -13.7458 -13.79 -13.8517 -13.8438 -13.7296 -13.9745 -14.0154 -14.0817 -14.1003 -14.0962 -14.3863 -14.163 -13.716 -13.689 -13.7295 -13.6809 -13.6748 -13.3938 -13.6842 -13.7919 -13.6692 -13.6369 -13.6528 -13.55 -13.3596 -13.3499 -13.3398 -13.3294 -13.3188 -13.3079 -13.2969 -13.2858 -13.2745 -13.2632 -13.2519 -13.2406 -13.2292 -13.2179 -13.2067 -13.1955 -13.1844 -13.1734 -13.1625 -13.1517 -13.141 -13.1304 -13.1199 -13.1095 -13.0993 -13.0891 -13.0791 -13.0692 -13.0595 -13.0498 -13.0403 -13.0309 -13.0216 -13.0124 -13.0034 -12.9945 -12.9856 -12.9769 -12.9684 -12.9599 -12.9516 -12.9434 -12.9353 -12.9273 -12.9194 -12.9117 -12.9041 -12.8966 -12.8892 -12.882 -12.8749 -12.8679 -12.8611 -12.8544 -12.8478 -12.8414 -12.8351 -12.8289 -12.8229 -12.817 -12.8113 -12.8057 -12.8002 -12.7949 -12.7897 -12.7847 -12.7799 -12.7752 -12.7706 -12.7662 -12.762 -12.7579 -12.7539 -12.7501 -12.7465 -12.743 -12.7397 -12.7365 -12.7335 -12.7307 -12.728 -12.7254 -12.723 -12.7208 -12.7187 -12.7168 -12.715 -12.7134 -12.7119 -12.7105 -12.7094 -12.7083 -12.7074 -12.7066 -12.706 -12.7055 -12.7052 -12.705
-18.438 -19.0377 -17.9306 -17.7796 -17.552 -17.3108 -17.5643 -17.7993 -18.2789 -18.4458 -17.9129 -18.2481 -19.5261 -20.3404 -19.8629 -19.0324 -18.4587 -18.1035 -17.7175 -17.724 -16.884 -16.3377 -16.0366 -15.9483 -15.7873 -15.7409 -15.6688 -15.6183 -15.4755 -15.4905 -15.4605 -15.3837 -15.397 -15.4093 -15.4207 -15.4312 -15.4408 -15.4496 -15.4577 -15.4651 -15.4719 -15.4781 -15.4838 -15.4891 -15.4939 -15.4984 -15.5026 -15.5064 -15.5101 -15.5135 -15.5168 -15.52 -15.523 -15.5259 -15.5288 -15.5316 -15.5344 -15.5372 -15.54 -15.5428 -15.5457 -15.5485 -15.5514 -15.5544 -15.5573 -15.5604 -15.5634 -15.5665 -15.5696 -15.5728 -15.576 -15.5792 -15.5824 -15.5856 -15.5887 -15.5919 -15.595 -15.598 -15.601 -15.6039 -15.6067 -15.6093 -15.6118 -15.6142 -15.6164 -15.6183 -15.6201 -15.6216 -15.6228 -15.6238 -15.6244 -15.6248 -15.6247 -15.6243 -15.6235 -15.6223 -15.6207 -15.6186 -15.6159 -15.6128 -15.6092 -15.605 -15.6003 -15.595 -15.5891 -15.5826 -15.5754 -15.5676 -15.5592 -15.55 -15.5402 -15.5298 -15.5186 -15.5067 -15.4941 -15.4808 -15.4668 -15.4521 -15.4367 -15.4206 -15.4038 -15.3863 -15.3681 -15.3493 -15.3298 -15.3096 -15.2889 -15.2675 -15.2454 -15.2229 -15.1997 -15.176 -15.1518 -15.1271 -15.1019 -15.0763 -15.0502 -15.0238 -14.9969 -14.9697 -14.9422 -14.9144 -14.8863 -14.8579 -14.8294 -14.8006 -14.7717 -14.7426 -14.7135 -14.6842 -14.6549 -14.6255 -14.5962 -14.5668 -14.5375 -14.5082 -14.4791 -14.45 -14.4211 -14.3923 -14.3637 -14.3353 -14.3071 -14.2792 -14.2515 -14.2241 -14.1969 -14.1701 -14.1436 -14.1174 -14.0916 -14.0662 -14.0411 -14.0164 -13.9921 -13.9683 -13.9448 -13.9218 -13.8992 -13.8771 -13.8554 -13.8342 -13.8134 -13.7931 -13.7733 -13.7539 -13.735 -13.7165 -13.6986 -13.6811 -13.6641 -13.6475 -13.6314 -13.6158 -13.6006 -13.5859 -13.5716 -13.5577 -13.5443 -13.5314 -13.5188 -13.5067 -13.495 -13.4837 -13.4727 -13.4622 -13.4521 -13.4423 -13.4329 -13.4239 -13.4152 -13.5424 -13.6263 -13.6646 -13.6577 -13.6513 -13.5529 -13.7076 -13.7449 -13.7837 -13.8691 -13.9065 -13.9027 -14.2555 -14.0919 -13.5666 -13.5801 -13.5985 -13.5251 -13.3238 -13.2138 -13.2296 -13.5417 -13.5576 -13.4822 -13.4986 -13.4236 -13.4361 -13.2226 -13.2143 -13.2058 -13.1973 -13.1886 -13.1799 -13.1711 -13.1623 -13.1535 -13.1447 -13.1359 -13.1271 -13.1183 -13.1096 -13.101 -13.0924 -13.0838 -13.0753 -13.0669 -13.0586 -13.0503 -13.0421 -13.034 -13.0259 -13.0179 -13.01 -13.0022 -12.9945 -12.9868 -12.9792 -12.9716 -12.9642 -12.9568 -12.9494 -12.9422 -12.935 -12.928 -12.921 -12.914 -12.9072 -12.9004 -12.8937 -12.8871 -12.8806 -12.8742 -12.8678 -12.8616 -12.8554 -12.8494 -12.8434 -12.8375 -12.8318 -12.8261 -12.8205 -12.8151 -12.8098 -12.8045 -12.7994 -12.7944 -12.7895 -12.7848 -12.7801 -12.7756 -12.7712 -12.7669 -12.7628 -12.7588 -12.7549 -12.7511 -12.7475 -12.744 -12.7407 -12.7375 -12.7344 -12.7315 -12.7287 -12.726 -12.7235 -12.7211 -12.7188 -12.7167 -12.7147 -12.7129 -12.7112 -12.7096 -12.7082 -12.7069 -12.7058 -12.7047 -12.7039 -12.7031 -12.7025 -12.702 -12.7016 -12.7014 -12.7013 -12.7013
-18.3325 -18.9103 -18.3327 -17.6447 -17.699 -17.5202 -17.0912 -18.0266 -17.7114 -18.2128 -17.6524 -18.2747 -18.8208 -19.2258 -19.6398 -18.7775 -18.3006 -17.9611 -17.488 -17.0356 -16.8298 -16.4392 -16.1442 -15.8514 -15.7105 -15.5712 -15.5933 -15.5391 -15.4869 -15.4383 -15.3371 -15.3513 -15.3645 -15.3767 -15.388 -15.3985 -15.4081 -15.4169 -15.4251 -15.4325 -15.4393 -15.4456 -15.4514 -15.4566 -15.4615 -15.466 -15.4702 -15.474 -15.4777 -15.4811 -15.4843 -15.4874 -15.4903 -15.4931 -15.4958 -15.4985 -15.5012 -15.5038 -15.5063 -15.5089 -15.5115 -15.5141 -15.5167 -15.5193 -15.522 -15.5247 -15.5274 -15.5301 -15.5329 -15.5356 -15.5384 -15.5412 -15.544 -15.5467 -15.5495 -15.5522 -15.5548 -15.5574 -15.5599 -15.5623 -15.5646 -15.5667 -15.5687 -15.5706 -15.5723 -15.5738 -15.575 -15.576 -15.5768 -15.5773 -15.5774 -15.5773 -15.5768 -15.5759 -15.5747 -15.573 -15.5709 -15.5684 -15.5654 -15.5619 -15.5579 -15.5534 -15.5483 -15.5427 -15.5364 -15.5296 -15.5222 -15.5142 -15.5055 -15.4962 -15.4863 -15.4756 -15.4643 -15.4524 -15.4397 -15.4264 -15.4124 -15.3977 -15.3823 -15.3663 -15.3496 -15.3322 -15.3141 -15.2954 -15.2761 -15.2561 -15.2356 -15.2144 -15.1926 -15.1703 -15.1475 -15.1241 -15.1002 -15.0758 -15.0509 -15.0256 -14.9999 -14.9738 -14.9473 -14.9204 -14.8933 -14.8658 -14.8381 -14.8101 -14.7819 -14.7534 -14.7248 -14.6961 -14.6672 -14.6383 -14.6092 -14.5801 -14.551 -14.5219 -14.4928 -14.4637 -14.4347 -14.4058 -14.377 -14.3484 -14.3198 -14.2915 -14.2633 -14.2353 -14.2076 -14.1801 -14.1528 -14.1258 -14.0992 -14.0728 -14.0467 -14.0209 -13.9955 -13.9704 -13.9457 -13.9214 -13.8974 -13.8738 -13.8506 -13.8278 -13.8054 -13.7834 -13.7618 -13.7407 -13.7199 -13.6996 -13.6796 -13.6601 -13.641 -13.6223 -13.6041 -13.5862 -13.5687 -13.5517 -13.535 -13.5187 -13.5029 -13.4874 -13.4723 -13.4575 -13.4431 -13.4291 -13.4155 -13.4022 -13.3892 -13.3766 -13.3643 -13.3524 -13.3407 -13.3294 -13.3184 -13.4459 -13.4122 -13.4476 -13.5507 -13.4971 -13.4397 -13.526 -13.5385 -13.5512 -13.6349 -13.7639 -13.8008 -13.9276 -13.6062 -13.4597 -13.4528 -13.3793 -13.1705 -13.1126 -13.0829 -13.0756 -13.2917 -13.4022 -13.4418 -13.3445 -13.3166 -13.2629 -13.3479 -13.0905 -13.0839 -13.0774 -13.071 -13.0645 -13.0581 -13.0517 -13.0454 -13.0391 -13.0328 -13.0266 -13.0204 -13.0142 -13.0081 -13.002 -12.9959 -12.9899 -12.9839 -12.9779 -12.972 -12.9661 -12.9602 -12.9544 -12.9485 -12.9427 -12.937 -12.9312 -12.9255 -12.9198 -12.9141 -12.9085 -12.9029 -12.8973 -12.8918 -12.8863 -12.8808 -12.8753 -12.8699 -12.8646 -12.8592 -12.854 -12.8487 -12.8435 -12.8384 -12.8333 -12.8283 -12.8234 -12.8185 -12.8136 -12.8089 -12.8042 -12.7996 -12.795 -12.7906 -12.7862 -12.7819 -12.7777 -12.7735 -12.7695 -12.7656 -12.7617 -12.758 -12.7544 -12.7508 -12.7474 -12.7441 -12.7409 -12.7378 -12.7348 -12.7319 -12.7291 -12.7265 -12.724 -12.7216 -12.7193 -12.7171 -12.7151 -12.7131 -12.7113 -12.7097 -12.7081 -12.7067 -12.7053 -12.7042 -12.7031 -12.7021 -12.7013 -12.7006 -12.7 -12.6996 -12.6992 -12.699 -12.6989 -12.6989 -12.699 -12.6992
-18.1408 -18.1753 -18.4807 -17.7815 -17.654 -17.4779 -17.775 -16.9678 -17.7091 -17.7391 -17.2766 -17.7764 -18.2455 -19.0418 -19.9111 -18.9771 -18.4327 -17.7777 -17.3493 -16.8693 -16.9777 -16.4385 -16.1447 -15.8212 -15.5907 -15.5664 -15.4679 -15.4857 -15.4127 -15.2908 -15.3058 -15.3198 -15.3328 -15.345 -15.3562 -15.3666 -15.3762 -15.3851 -15.3932 -15.4007 -15.4075 -15.4139 -15.4196 -15.425 -15.4299 -15.4344 -15.4386 -15.4424 -15.446 -15.4494 -15.4526 -15.4556 -15.4584 -15.4611 -15.4637 -15.4663 -15.4687 -15.4712 -15.4736 -15.4759 -15.4783 -15.4806 -15.483 -15.4853 -15.4877 -15.4901 -15.4925 -15.4949 -15.4973 -15.4997 -15.5021 -15.5045 -15.5068 -15.5092 -15.5115 -15.5138 -15.516 -15.5181 -15.5202 -15.5221 -15.5239 -15.5256 -15.5272 -15.5286 -15.5298 -15.5308 -15.5316 -15.5321 -15.5324 -15.5324 -15.5321 -15.5315 -15.5306 -15.5293 -15.5276 -15.5255 -15.523 -15.5201 -15.5167 -15.5129 -15.5085 -15.5037 -15.4983 -15.4923 -15.4858 -15.4788 -15.4711 -15.4629 -15.454 -15.4445 -15.4344 -15.4236 -15.4122 -15.4002 -15.3875 -15.3741 -15.3601 -15.3454 -15.3301 -15.3141 -15.2975 -15.2802 -15.2623 -15.2437 -15.2245 -15.2048 -15.1844 -15.1635 -15.1419 -15.1199 -15.0973 -15.0742 -15.0506 -15.0265 -15.0019 -14.9769 -14.9516 -14.9258 -14.8996 -14.8731 -14.8463 -14.8191 -14.7917 -14.7641 -14.7362 -14.7081 -14.6798 -14.6514 -14.6228 -14.5941 -14.5653 -14.5365 -14.5076 -14.4787 -14.4498 -14.4209 -14.3921 -14.3633 -14.3346 -14.306 -14.2775 -14.2492 -14.221 -14.193 -14.1652 -14.1376 -14.1102 -14.0831 -14.0562 -14.0296 -14.0032 -13.9772 -13.9514 -13.9259 -13.9008 -13.8759 -13.8514 -13.8273 -13.8035 -13.78 -13.7569 -13.7341 -13.7117 -13.6897 -13.668 -13.6467 -13.6257 -13.6051 -13.5849 -13.565 -13.5455 -13.5264 -13.5075 -13.4891 -13.4709 -13.4531 -13.4356 -13.4185 -13.4017 -13.3852 -13.369 -13.3531 -13.3375 -13.3222 -13.3072 -13.2925 -13.2781 -13.2639 -13.2501 -13.2365 -13.2232 -13.1873 -13.3121 -13.164 -13.2459 -13.1609 -13.1652 -13.2949 -13.4219 -13.4374 -13.541 -13.6198 -13.4526 -13.4866 -13.4122 -13.2899 -13.2634 -13.0192 -12.9897 -12.9589 -12.9285 -12.9216 -12.9367 -13.2735 -13.2214 -13.2172 -13.1883 -13.2272 -12.9746 -12.9681 -12.9635 -12.9591 -12.9548 -12.9507 -12.9466 -12.9427 -12.9388 -12.935 -12.9313 -12.9276 -12.9239 -12.9203 -12.9167 -12.9131 -12.9095 -12.9059 -12.9024 -12.8988 -12.8952 -12.8916 -12.8879 -12.8843 -12.8806 -12.8769 -12.8732 -12.8695 -12.8657 -12.8619 -12.8581 -12.8543 -12.8505 -12.8466 -12.8428 -12.8389 -12.835 -12.8312 -12.8273 -12.8234 -12.8195 -12.8156 -12.8118 -12.8079 -12.8041 -12.8003 -12.7965 -12.7927 -12.789 -12.7853 -12.7816 -12.778 -12.7744 -12.7709 -12.7674 -12.7639 -12.7606 -12.7573 -12.754 -12.7508 -12.7477 -12.7447 -12.7417 -12.7388 -12.736 -12.7333 -12.7307 -12.7281 -12.7257 -12.7233 -12.721 -12.7189 -12.7168 -12.7148 -12.7129 -12.7111 -12.7095 -12.7079 -12.7064 -12.7051 -12.7038 -12.7027 -12.7017 -12.7007 -12.6999 -12.6992 -12.6986 -12.6981 -12.6977 -12.6974 -12.6973 -12.6972 -12.6972 -12.6974 -12.6976 -12.698 -12.6984
-18.1646 -17.7922 -17.619 -17.6004 -17.357 -17.8267 -17.7973 -17.6407 -17.1156 -16.9501 -18.0985 -18.0626 -18.3275 -18.9812 -19.24 -19.164 -18.3022 -17.7294 -17.0979 -16.7073 -16.8743 -16.4447 -15.9575 -15.6598 -15.5399 -15.3993 -15.3944 -15.436 -15.4948 -15.2618 -15.2766 -15.2904 -15.3033 -15.3153 -15.3265 -15.3368 -15.3464 -15.3552 -15.3634 -15.3709 -15.3777 -15.3841 -15.3899 -15.3953 -15.4002 -15.4047 -15.4089 -15.4128 -15.4163 -15.4197 -15.4228 -15.4257 -15.4285 -15.4311 -15.4337 -15.4361 -15.4384 -15.4407 -15.4429 -15.4451 -15.4472 -15.4493 -15.4514 -15.4535 -15.4556 -15.4577 -15.4598 -15.4619 -15.464 -15.466 -15.4681 -15.4701 -15.4721 -15.4741 -15.476 -15.4779 -15.4796 -15.4814 -15.483 -15.4845 -15.4859 -15.4872 -15.4883 -15.4892 -15.49 -15.4905 -15.4909 -15.491 -15.4908 -15.4904 -15.4897 -15.4887 -15.4873 -15.4856 -15.4835 -15.481 -15.4782 -15.4749 -15.4711 -15.4669 -15.4622 -15.4571 -15.4514 -15.4451 -15.4384 -15.4311 -15.4232 -15.4147 -15.4057 -15.396 -15.3858 -15.3749 -15.3634 -15.3513 -15.3385 -15.3251 -15.3111 -15.2964 -15.2811 -15.2652 -15.2486 -15.2314 -15.2136 -15.1952 -15.1762 -15.1566 -15.1365 -15.1157 -15.0944 -15.0726 -15.0503 -15.0274 -15.0041 -14.9803 -14.9561 -14.9314 -14.9063 -14.8808 -14.855 -14.8288 -14.8023 -14.7755 -14.7484 -14.7211 -14.6935 -14.6657 -14.6377 -14.6095 -14.5812 -14.5528 -14.5243 -14.4957 -14.467 -14.4383 -14.4096 -14.3809 -14.3522 -14.3235 -14.2949 -14.2664 -14.238 -14.2097 -14.1815 -14.1535 -14.1256 -14.0979 -14.0704 -14.0431 -14.016 -13.9891 -13.9624 -13.9361 -13.9099 -13.8841 -13.8585 -13.8332 -13.8081 -13.7834 -13.759 -13.7348 -13.711 -13.6875 -13.6643 -13.6414 -13.6188 -13.5965 -13.5745 -13.5529 -13.5315 -13.5104 -13.4897 -13.4692 -13.449 -13.4292 -13.4096 -13.3902 -13.3712 -13.3524 -13.3339 -13.3156 -13.2976 -13.2798 -13.2623 -13.245 -13.228 -13.2112 -13.1946 -13.1783 -13.1622 -13.1464 -13.1308 -13.1154 -13.1916 -13.1558 -13.071 -13.0568 -13.2243 -13.2574 -13.2892 -13.322 -13.3573 -13.4118 -13.4003 -13.2987 -13.2882 -13.1653 -13.1338 -12.9167 -12.9073 -12.8309 -12.8007 -12.7938 -12.8083 -13.0326 -13.1644 -13.1141 -13.1096 -13.0853 -13.0565 -12.8487 -12.846 -12.8436 -12.8415 -12.8396 -12.838 -12.8364 -12.8351 -12.8338 -12.8326 -12.8314 -12.8303 -12.8292 -12.8282 -12.8271 -12.826 -12.8248 -12.8237 -12.8224 -12.8212 -12.8198 -12.8184 -12.817 -12.8155 -12.8139 -12.8122 -12.8105 -12.8087 -12.7612 -12.9189 -12.7572 -12.8008 -12.7987 -12.7965 -12.7943 -12.792 -12.7897 -12.7873 -12.7849 -12.7824 -12.7799 -12.7774 -12.7749 -12.7723 -12.7698 -12.7672 -12.7646 -12.762 -12.7595 -12.7569 -12.7543 -12.7518 -12.7492 -12.7467 -12.7442 -12.7418 -12.7393 -12.737 -12.7346 -12.7323 -12.7301 -12.7279 -12.7257 -12.7237 -12.7216 -12.7197 -12.7178 -12.716 -12.7142 -12.7126 -12.711 -12.7095 -12.708 -12.7067 -12.7054 -12.7042 -12.7031 -12.7021 -12.7012 -12.7004 -12.6997 -12.699 -12.6985 -12.698 -12.6977 -12.6974 -12.6972 -12.6972 -12.6972 -12.6973 -12.6975 -12.6978 -12.6982 -12.6987 -12.6993 -12.7
-18.9165 -18.4915 -18.054 -17.7718 -17.3504 -17.2178 -17.457 -16.9928 -17.2968 -16.9127 -17.685 -17.4713 -17.7696 -18.4591 -18.6977 -18.9374 -18.1895 -17.8534 -17.0369 -16.6171 -16.4146 -16.0042 -15.7058 -15.5635 -15.4908 -15.4427 -15.4598 -15.453 -15.4663 -15.4397 -15.2489 -15.2625 -15.2752 -15.2871 -15.2982 -15.3084 -15.318 -15.3268 -15.3349 -15.3424 -15.3493 -15.3557 -15.3615 -15.3669 -15.3718 -15.3764 -15.3806 -15.3844 -15.388 -15.3913 -15.3944 -15.3973 -15.4 -15.4026 -15.405 -15.4073 -15.4095 -15.4116 -15.4137 -15.4157 -15.4176 -15.4196 -15.4214 -15.4233 -15.4251 -15.427 -15.4288 -15.4306 -15.4323 -15.4341 -15.4358 -15.4375 -15.4391 -15.4407 -15.4423 -15.4438 -15.4452 -15.4465 -15.4477 -15.4488 -15.4498 -15.4507 -15.4514 -15.4519 -15.4522 -15.4524 -15.4523 -15.452 -15.4514 -15.4506 -15.4495 -15.448 -15.4463 -15.4442 -15.4417 -15.4389 -15.4356 -15.432 -15.4279 -15.4234 -15.4184 -15.4129 -15.4069 -15.4004 -15.3934 -15.3859 -15.3778 -15.3691 -15.3599 -15.3501 -15.3397 -15.3287 -15.3171 -15.3049 -15.2921 -15.2787 -15.2647 -15.25 -15.2347 -15.2189 -15.2024 -15.1853 -15.1676 -15.1493 -15.1305 -15.1111 -15.0911 -15.0706 -15.0495 -15.0279 -15.0058 -14.9832 -14.9602 -14.9366 -14.9127 -14.8883 -14.8635 -14.8383 -14.8128 -14.7869 -14.7607 -14.7342 -14.7074 -14.6804 -14.6531 -14.6256 -14.5979 -14.57 -14.542 -14.5138 -14.4855 -14.4571 -14.4287 -14.4001 -14.3716 -14.343 -14.3145 -14.2859 -14.2574 -14.2289 -14.2006 -14.1723 -14.1441 -14.116 -14.088 -14.0602 -14.0325 -14.0051 -13.9777 -13.9506 -13.9237 -13.897 -13.8705 -13.8442 -13.8182 -13.7924 -13.7669 -13.7416 -13.7165 -13.6917 -13.6672 -13.6429 -13.6189 -13.5951 -13.5716 -13.5484 -13.5254 -13.5027 -13.4802 -13.458 -13.436 -13.4142 -13.3927 -13.3714 -13.3504 -13.3295 -13.3089 -13.2885 -13.2683 -13.2483 -13.2284 -13.2088 -13.1894 -13.1701 -13.1511 -13.1322 -13.1135 -13.095 -13.0767 -13.0587 -13.0408 -13.0231 -13.0057 -12.9886 -12.9717 -12.9551 -13.1668 -13.151 -13.157 -13.1439 -13.1305 -13.183 -13.1507 -13.0927 -13.0541 -12.973 -12.9845 -12.9293 -12.7865 -12.7291 -12.6988 -12.6903 -12.8904 -12.8623 -12.8812 -12.9915 -13.0328 -12.9853 -12.9593 -12.7316 -12.7309 -12.7306 -12.7307 -12.7311 -12.7318 -12.7327 -12.7338 -12.735 -12.7363 -12.7377 -12.7392 -12.7406 -12.742 -12.7435 -12.7448 -12.7461 -12.7473 -12.7484 -12.7495 -12.7504 -12.7512 -12.752 -12.7526 -12.7531 -12.7534 -12.7537 -12.7538 -12.7538 -12.7537 -12.7535 -12.7304 -12.7528 -12.7523 -12.7517 -12.751 -12.7502 -12.7493 -12.7484 -12.7474 -12.7463 -12.7451 -12.7439 -12.7426 -12.7413 -12.7399 -12.7385 -12.737 -12.7356 -12.7341 -12.7325 -12.731 -12.7295 -12.7279 -12.7264 -12.7248 -12.7233 -12.7218 -12.7202 -12.7188 -12.7173 -12.7159 -12.7145 -12.7131 -12.7118 -12.7105 -12.7093 -12.7081 -12.707 -12.7059 -12.7049 -12.7039 -12.703 -12.7022 -12.7014 -12.7007 -12.7001 -12.6996 -12.6991 -12.6987 -12.6984 -12.6981 -12.698 -12.6979 -12.6979 -12.6979 -12.6981 -12.6983 -12.6987 -12.6991 -12.6996 -12.7001 -12.7008 -12.7015 -12.7023 -12.7032
-19.9896 -19.0344 -19.2799 -17.8334 -17.6795 -17.6895 -17.5618 -17.7951 -17.4379 -16.6131 -17.1492 -17.4551 -17.7079 -17.6945 -17.731 -18.7643 -18.307 -17.4218 -17.1158 -16.6193 -16.3024 -15.9574 -15.7714 -15.562 -15.4448 -15.486 -15.4124 -15.406 -15.5124 -15.5511 -15.2231 -15.2365 -15.249 -15.2608 -15.2717 -15.2819 -15.2914 -15.3002 -15.3083 -15.3158 -15.3227 -15.329 -15.3349 -15.3403 -15.3453 -15.3498 -15.354 -15.3579 -15.3614 -15.3647 -15.3678 -15.3706 -15.3733 -15.3758 -15.3781 -15.3803 -15.3824 -15.3844 -15.3863 -15.3881 -15.3899 -15.3917 -15.3933 -15.395 -15.3966 -15.3982 -15.3997 -15.4012 -15.4027 -15.4042 -15.4056 -15.4069 -15.4083 -15.4095 -15.4107 -15.4118 -15.4129 -15.4138 -15.4147 -15.4154 -15.416 -15.4165 -15.4168 -15.4169 -15.4169 -15.4166 -15.4161 -15.4154 -15.4145 -15.4132 -15.4117 -15.4099 -15.4078 -15.4053 -15.4025 -15.3993 -15.3957 -15.3917 -15.3873 -15.3825 -15.3772 -15.3715 -15.3652 -15.3585 -15.3512 -15.3435 -15.3352 -15.3264 -15.317 -15.307 -15.2965 -15.2854 -15.2737 -15.2615 -15.2486 -15.2352 -15.2211 -15.2065 -15.1913 -15.1755 -15.159 -15.1421 -15.1245 -15.1063 -15.0876 -15.0684 -15.0486 -15.0283 -15.0074 -14.986 -14.9642 -14.9418 -14.919 -14.8958 -14.8721 -14.848 -14.8235 -14.7986 -14.7734 -14.7478 -14.7219 -14.6956 -14.6691 -14.6424 -14.6154 -14.5881 -14.5607 -14.5331 -14.5053 -14.4773 -14.4493 -14.4211 -14.3928 -14.3645 -14.3361 -14.3077 -14.2792 -14.2508 -14.2223 -14.1939 -14.1656 -14.1373 -14.1091 -14.0809 -14.0529 -14.0249 -13.9971 -13.9695 -13.942 -13.9146 -13.8874 -13.8604 -13.8335 -13.8068 -13.7804 -13.7541 -13.728 -13.7021 -13.6765 -13.651 -13.6258 -13.6008 -13.5759 -13.5513 -13.5269 -13.5028 -13.4788 -13.455 -13.4314 -13.408 -13.3848 -13.3618 -13.339 -13.3163 -13.2938 -13.2715 -13.2493 -13.2273 -13.2054 -13.1837 -13.1621 -13.1406 -13.1193 -13.0981 -13.077 -13.0561 -13.0353 -13.0147 -12.9942 -12.9739 -12.9537 -12.9338 -12.9141 -12.8946 -12.8754 -12.9249 -13.0205 -13.0254 -12.9844 -12.9426 -12.9507 -12.9798 -12.9382 -12.9957 -12.9351 -12.9453 -12.933 -12.8311 -12.8435 -12.7648 -12.6432 -12.7245 -12.7452 -12.7399 -12.7367 -12.7573 -12.8926 -12.867 -12.8699 -12.6176 -12.6188 -12.6206 -12.6229 -12.6256 -12.6287 -12.632 -12.6355 -12.6393 -12.6431 -12.647 -12.651 -12.655 -12.6589 -12.6628 -12.6666 -12.6703 -12.6739 -12.7001 -12.6806 -12.6838 -12.6868 -12.6897 -12.6924 -12.695 -12.6517 -12.6996 -12.7016 -12.7035 -12.7052 -12.7068 -12.7083 -11.5463 -12.7107 -12.7117 -12.7125 -12.7132 -12.7139 -12.7143 -12.7147 -12.715 -12.7152 -12.7152 -12.7152 -12.7151 -12.7149 -12.7147 -12.7143 -12.714 -12.7135 -12.7131 -12.7125 -12.712 -12.7114 -12.7107 -12.7101 -12.7094 -12.7088 -12.7081 -12.7074 -12.7067 -12.706 -12.7054 -12.7047 -12.7041 -12.7035 -12.7029 -12.7023 -12.7018 -12.7013 -12.7009 -12.7004 -12.7001 -12.6998 -12.6995 -12.6993 -12.6992 -12.6991 -12.699 -12.699 -12.6991 -12.6993 -12.6995 -12.6998 -12.7001 -12.7005 -12.701 -12.7016 -12.7022 -12.7029 -12.7036 -12.7045 -12.7054 -12.7063 -12.7074 -12.7085
-20.299 -19.7669 -18.3985 -18.2258 -18.5922 -18.2209 -18.1997 -17.9272 -17.0059 -16.6042 -17.2255 -18.3369 -17.2574 -17.2483 -17.5596 -18.4567 -18.453 -17.7545 -17.4284 -16.7839 -16.2132 -15.7541 -15.6614 -15.5637 -15.5119 -15.4419 -15.4805 -15.4273 -15.4454 -15.4367 -15.3813 -15.212 -15.2244 -15.236 -15.2468 -15.2569 -15.2663 -15.275 -15.2831 -15.2906 -15.2975 -15.3039 -15.3097 -15.3151 -15.3201 -15.3247 -15.3289 -15.3327 -15.3363 -15.3395 -15.3426 -15.3454 -15.348 -15.3504 -15.3526 -15.3548 -15.3568 -15.3586 -15.3604 -15.3621 -15.3637 -15.3653 -15.3668 -15.3682 -15.3696 -15.371 -15.3723 -15.3735 -15.3748 -15.3759 -15.3771 -15.3781 -15.3791 -15.3801 -15.3809 -15.3817 -15.3824 -15.383 -15.3835 -15.3839 -15.3842 -15.3842 -15.3842 -15.3839 -15.3835 -15.3829 -15.382 -15.381 -15.3796 -15.378 -15.3762 -15.374 -15.3715 -15.3687 -15.3655 -15.362 -15.3581 -15.3538 -15.3491 -15.344 -15.3384 -15.3324 -15.3259 -15.3189 -15.3115 -15.3035 -15.2951 -15.286 -15.2765 -15.2664 -15.2558 -15.2446 -15.2329 -15.2205 -15.2076 -15.1942 -15.1801 -15.1655 -15.1503 -15.1346 -15.1182 -15.1013 -15.0839 -15.0659 -15.0473 -15.0282 -15.0086 -14.9884 -14.9678 -14.9466 -14.925 -14.9029 -14.8803 -14.8573 -14.8339 -14.8101 -14.7858 -14.7612 -14.7363 -14.711 -14.6853 -14.6594 -14.6332 -14.6067 -14.5799 -14.553 -14.5258 -14.4984 -14.4708 -14.4431 -14.4153 -14.3873 -14.3592 -14.331 -14.3028 -14.2745 -14.2461 -14.2178 -14.1894 -14.161 -14.1327 -14.1044 -14.0761 -14.0479 -14.0198 -13.9918 -13.9638 -13.936 -13.9082 -13.8806 -13.8531 -13.8258 -13.7986 -13.7715 -13.7446 -13.7178 -13.6913 -13.6648 -13.6386 -13.6125 -13.5865 -13.5608 -13.5351 -13.5097 -13.4844 -13.4593 -13.4343 -13.4095 -13.3848 -13.3603 -13.3359 -13.3117 -13.2875 -13.2635 -13.2396 -13.2158 -13.1921 -13.1685 -13.145 -13.1215 -13.0982 -13.0749 -13.0517 -13.0286 -13.0056 -12.9827 -12.9598 -12.937 -12.9144 -12.8919 -12.8695 -12.8473 -12.8253 -12.8035 -12.7819 -12.8519 -12.8549 -12.7193 -12.9502 -12.9085 -12.9335 -12.9153 -12.8762 -12.8597 -12.8432 -12.8525 -12.816 -12.7792 -12.7007 -12.715 -12.6838 -12.6315 -12.6034 -12.6214 -12.6189 -12.6851 -12.6617 -12.6854 -12.7556 -12.5174 -12.5097 -12.5135 -12.518 -12.523 -12.5285 -12.5342 -12.5403 -12.5465 -12.5528 -12.5592 -12.5657 -12.5722 -12.5786 -12.5849 -12.5911 -12.5972 -12.6031 -12.7217 -12.7292 -12.7163 -12.7847 -12.63 -12.6348 -12.6394 -12.6437 -12.6479 -12.6518 -12.6556 -12.6591 -12.6624 -12.6656 -12.6685 -12.7397 -12.6738 -12.6762 -12.6785 -12.6805 -12.6824 -12.6842 -12.6858 -12.6873 -12.6886 -12.6899 -12.691 -12.692 -12.6928 -12.6936 -12.6943 -12.695 -12.6955 -12.696 -12.6964 -12.6967 -12.697 -12.6972 -12.6974 -12.6976 -12.6977 -12.6978 -12.6979 -12.698 -12.698 -12.6981 -12.6981 -12.6982 -12.6982 -12.6983 -12.6984 -12.6985 -12.6986 -12.6987 -12.6989 -12.6991 -12.6993 -12.6996 -12.6999 -12.7002 -12.7006 -12.7011 -12.7016 -12.7021 -12.7027 -12.7033 -12.704 -12.7048 -12.7056 -12.7064 -12.7073 -12.7083 -12.7094 -12.7105 -12.7116 -12.7128 -12.7141 -12.7155
-19.9366 -19.1553 -18.9272 -18.7549 -18.4862 -18.1508 -17.9669 -18.2835 -17.8015 -16.7596 -16.8162 -17.3182 -17.2763 -16.8646 -17.2209 -18.3787 -17.772 -17.8447 -17.5662 -17.1249 -16.3544 -15.9152 -15.5914 -15.432 -15.4705 -15.4932 -15.4841 -15.4304 -15.354 -15.369 -15.3378 -15.1893 -15.2014 -15.2129 -15.2236 -15.2336 -15.2429 -15.2515 -15.2596 -15.267 -15.2739 -15.2803 -15.2861 -15.2915 -15.2965 -15.3011 -15.3053 -15.3091 -15.3127 -15.3159 -15.3189 -15.3217 -15.3242 -15.3266 -15.3288 -15.3308 -15.3327 -15.3345 -15.3361 -15.3377 -15.3392 -15.3406 -15.3419 -15.3432 -15.3443 -15.3455 -15.3466 -15.3476 -15.3486 -15.3495 -15.3503 -15.3511 -15.3518 -15.3525 -15.3531 -15.3535 -15.3539 -15.3542 -15.3544 -15.3544 -15.3543 -15.354 -15.3536 -15.353 -15.3523 -15.3513 -15.3501 -15.3486 -15.347 -15.345 -15.3428 -15.3403 -15.3375 -15.3344 -15.3309 -15.327 -15.3228 -15.3183 -15.3133 -15.3079 -15.3021 -15.2958 -15.2891 -15.2819 -15.2742 -15.2661 -15.2574 -15.2483 -15.2386 -15.2284 -15.2176 -15.2064 -15.1945 -15.1822 -15.1692 -15.1558 -15.1417 -15.1271 -15.112 -15.0963 -15.08 -15.0632 -15.0459 -15.028 -15.0096 -14.9906 -14.9711 -14.9512 -14.9307 -14.9098 -14.8884 -14.8665 -14.8442 -14.8214 -14.7982 -14.7746 -14.7507 -14.7263 -14.7016 -14.6766 -14.6512 -14.6255 -14.5996 -14.5733 -14.5468 -14.5201 -14.4932 -14.466 -14.4387 -14.4112 -14.3835 -14.3557 -14.3278 -14.2998 -14.2717 -14.2435 -14.2153 -14.187 -14.1587 -14.1304 -14.102 -14.0737 -14.0454 -14.0172 -13.989 -13.9608 -13.9327 -13.9046 -13.8767 -13.8488 -13.8211 -13.7934 -13.7658 -13.7384 -13.711 -13.6838 -13.6567 -13.6297 -13.6029 -13.5761 -13.5495 -13.523 -13.4966 -13.4704 -13.4442 -13.4182 -13.3923 -13.3664 -13.3407 -13.315 -13.2895 -13.264 -13.2386 -13.2132 -13.1879 -13.1627 -13.1375 -13.1123 -13.0872 -13.0621 -13.0371 -13.012 -12.987 -12.962 -12.9371 -12.9121 -12.8873 -12.8624 -12.8377 -12.813 -12.7884 -12.7639 -12.7396 -12.7155 -12.6917 -12.6682 -12.645 -12.7591 -12.8051 -12.8494 -12.8537 -12.8348 -12.8596 -12.773 -12.7332 -12.7398 -12.6791 -12.688 -12.6777 -12.5762 -12.5662 -12.5384 -12.509 -12.4825 -12.4804 -12.548 -12.5716 -12.6194 -12.6451 -12.3985 -12.4037 -12.4098 -12.4165 -12.4238 -12.4316 -12.4398 -12.4482 -12.4569 -12.4658 -12.4747 -12.4836 -12.4925 -12.5013 -12.5101 -12.5186 -12.591 -12.7167 -12.5433 -12.5511 -12.5587 -12.566 -12.5731 -12.5799 -12.5865 -12.5928 -12.5988 -12.6046 -12.6102 -12.6155 -12.6205 -12.6253 -12.6299 -12.6343 -12.6384 -12.6195 -12.646 -12.6495 -12.6528 -12.6559 -12.6589 -12.6616 -12.6642 -12.6667 -12.669 -12.6711 -12.6731 -12.675 -12.6768 -12.6784 -12.68 -12.6814 -12.6828 -12.6841 -12.6852 -12.6864 -12.6874 -12.6884 -12.6893 -12.6902 -12.691 -12.6918 -12.6926 -12.6933 -12.6941 -12.6948 -12.6954 -12.6961 -12.6968 -12.6975 -12.6981 -12.6988 -12.6995 -12.7002 -12.7009 -12.7017 -12.7024 -12.7032 -12.704 -12.7049 -12.7058 -12.7067 -12.7076 -12.7086 -12.7097 -12.7108 -12.7119 -12.713 -12.7143 -12.7155 -12.7168 -12.7182 -12.7196 -12.7211 -12.7226 -12.7241
-19.9293 -19.4289 -19.1973 -18.9365 -18.8581 -18.4157 -18.039 -17.5826 -17.2978 -16.9878 -16.7738 -17.0842 -16.6094 -17.0486 -16.6867 -17.6438 -17.3426 -17.5586 -17.2032 -17.0289 -16.4096 -15.9266 -15.6428 -15.5723 -15.4977 -15.4029 -15.3961 -15.365 -15.335 -15.3249 -15.1618 -15.1693 -15.1813 -15.1925 -15.2031 -15.213 -15.2222 -15.2308 -15.2388 -15.2462 -15.253 -15.2594 -15.2652 -15.2706 -15.2756 -15.2801 -15.2843 -15.2882 -15.2917 -15.295 -15.2979 -15.3007 -15.3032 -15.3055 -15.3076 -15.3096 -15.3114 -15.3131 -15.3146 -15.316 -15.3174 -15.3186 -15.3198 -15.3209 -15.3219 -15.3228 -15.3237 -15.3245 -15.3253 -15.3259 -15.3265 -15.3271 -15.3275 -15.3279 -15.3282 -15.3284 -15.3284 -15.3284 -15.3283 -15.328 -15.3275 -15.327 -15.3262 -15.3253 -15.3242 -15.3229 -15.3214 -15.3196 -15.3176 -15.3153 -15.3128 -15.31 -15.3068 -15.3034 -15.2996 -15.2955 -15.291 -15.2862 -15.2809 -15.2753 -15.2692 -15.2627 -15.2558 -15.2484 -15.2405 -15.2322 -15.2234 -15.2141 -15.2043 -15.194 -15.1831 -15.1718 -15.1599 -15.1475 -15.1345 -15.121 -15.107 -15.0924 -15.0773 -15.0617 -15.0455 -15.0288 -15.0115 -14.9937 -14.9755 -14.9567 -14.9374 -14.9176 -14.8973 -14.8765 -14.8553 -14.8337 -14.8116 -14.789 -14.7661 -14.7428 -14.719 -14.6949 -14.6705 -14.6457 -14.6206 -14.5952 -14.5695 -14.5435 -14.5172 -14.4907 -14.464 -14.4371 -14.41 -14.3827 -14.3552 -14.3276 -14.2998 -14.272 -14.244 -14.2159 -14.1878 -14.1596 -14.1313 -14.103 -14.0747 -14.0464 -14.018 -13.9897 -13.9614 -13.9331 -13.9048 -13.8766 -13.8485 -13.8204 -13.7923 -13.7643 -13.7364 -13.7086 -13.6808 -13.6531 -13.6255 -13.598 -13.5705 -13.5432 -13.5159 -13.4887 -13.4616 -13.4345 -13.4075 -13.3806 -13.3537 -13.3269 -13.3001 -13.2733 -13.2466 -13.22 -13.1933 -13.1667 -13.14 -13.1134 -13.0867 -13.06 -13.0334 -13.0067 -12.9799 -12.9532 -12.9264 -12.8995 -12.8727 -12.8458 -12.819 -12.7921 -12.7652 -12.7384 -12.7117 -12.685 -12.6585 -12.6322 -12.6061 -12.5803 -12.5548 -12.5298 -12.7321 -12.7107 -12.7539 -12.6677 -12.7345 -12.7144 -12.6297 -12.6323 -12.6615 -12.6015 -12.522 -12.442 -12.4318 -12.4479 -12.3981 -12.3935 -12.3917 -12.4163 -12.4403 -12.4429 -12.5398 -12.2952 -12.3025 -12.3106 -12.3196 -12.3292 -12.3394 -12.35 -12.3609 -12.372 -12.3833 -12.3946 -12.406 -12.4173 -12.4286 -12.4396 -12.4505 -12.4613 -12.4717 -12.482 -12.4919 -12.5016 -12.511 -12.5202 -12.529 -12.5375 -12.5457 -12.5536 -12.5612 -12.5685 -12.5756 -12.5823 -12.5888 -12.595 -12.6009 -12.6065 -12.6595 -12.5942 -12.622 -12.6266 -12.6311 -12.6353 -12.6394 -12.6432 -12.6468 -12.6503 -12.6536 -12.6567 -12.6597 -12.6625 -12.6651 -12.6677 -12.6701 -12.6724 -12.6745 -12.6766 -12.6786 -12.6805 -12.6823 -12.684 -12.6856 -12.6872 -12.6887 -12.6902 -12.6916 -12.693 -12.6943 -12.6956 -12.6969 -12.6982 -12.6994 -12.7006 -12.7018 -12.703 -12.7042 -12.7054 -12.7066 -12.7078 -12.7091 -12.7103 -12.7116 -12.7128 -12.7141 -12.7155 -12.7168 -12.7182 -12.7196 -12.721 -12.7225 -12.724 -12.7256 -12.7271 -12.7287 -12.7304 -12.7321 -12.7338 -12.7356
-20.486 -20.3464 -19.9922 -19.6049 -19.2769 -18.8449 -17.8896 -17.2419 -17.0145 -17.1113 -16.3966 -16.2014 -16.0311 -16.1768 -16.1034 -16.766 -16.9466 -17.1517 -16.7418 -16.6452 -16.2562 -15.8679 -15.6498 -15.5788 -15.5048 -15.4296 -15.4214 -15.3697 -15.3386 -15.3077 -15.2765 -15.1503 -15.1621 -15.1731 -15.1836 -15.1933 -15.2024 -15.2109 -15.2189 -15.2262 -15.233 -15.2394 -15.2452 -15.2506 -15.2555 -15.2601 -15.2643 -15.2681 -15.2716 -15.2748 -15.2778 -15.2805 -15.283 -15.2852 -15.2873 -15.2892 -15.2909 -15.2925 -15.2939 -15.2953 -15.2965 -15.2976 -15.2986 -15.2995 -15.3004 -15.3011 -15.3018 -15.3024 -15.303 -15.3034 -15.3038 -15.3041 -15.3043 -15.3044 -15.3044 -15.3043 -15.3041 -15.3038 -15.3033 -15.3028 -15.302 -15.3012 -15.3001 -15.2989 -15.2975 -15.2958 -15.294 -15.2919 -15.2896 -15.287 -15.2842 -15.2811 -15.2777 -15.2739 -15.2699 -15.2655 -15.2607 -15.2556 -15.2501 -15.2442 -15.2379 -15.2312 -15.2241 -15.2165 -15.2085 -15.2 -15.191 -15.1816 -15.1717 -15.1613 -15.1503 -15.1389 -15.127 -15.1145 -15.1015 -15.088 -15.074 -15.0595 -15.0444 -15.0288 -15.0127 -14.9961 -14.9789 -14.9613 -14.9431 -14.9245 -14.9053 -14.8857 -14.8656 -14.845 -14.824 -14.8026 -14.7807 -14.7584 -14.7357 -14.7126 -14.6891 -14.6652 -14.641 -14.6165 -14.5916 -14.5664 -14.541 -14.5152 -14.4892 -14.4629 -14.4364 -14.4097 -14.3828 -14.3557 -14.3284 -14.3009 -14.2733 -14.2456 -14.2177 -14.1898 -14.1617 -14.1336 -14.1054 -14.0771 -14.0488 -14.0205 -13.9921 -13.9637 -13.9353 -13.9069 -13.8785 -13.8501 -13.8217 -13.7933 -13.765 -13.7367 -13.7085 -13.6802 -13.6521 -13.6239 -13.5958 -13.5678 -13.5398 -13.5118 -13.4838 -13.4559 -13.4281 -13.4002 -13.3724 -13.3446 -13.3168 -13.289 -13.2612 -13.2334 -13.2056 -13.1778 -13.1499 -13.122 -13.0941 -13.066 -13.038 -13.0098 -12.9816 -12.9534 -12.925 -12.8966 -12.868 -12.8394 -12.8108 -12.782 -12.7532 -12.7244 -12.6955 -12.6666 -12.6378 -12.609 -12.5803 -12.5517 -12.5234 -12.4953 -12.4676 -12.4404 -12.6176 -12.6409 -12.6966 -12.5898 -12.5656 -12.5435 -12.5716 -12.5497 -12.5561 -12.5651 -12.4567 -12.3542 -12.3447 -12.3143 -12.2873 -12.2845 -12.2841 -12.3084 -12.3347 -12.3849 -12.4159 -12.1949 -12.2042 -12.2145 -12.2258 -12.2377 -12.2502 -12.2632 -12.2765 -12.2901 -12.3038 -12.3175 -12.3313 -12.345 -12.3585 -12.3719 -12.3851 -12.398 -12.4107 -12.4231 -12.4352 -12.447 -12.4584 -12.4695 -12.4803 -12.4907 -12.5008 -12.5105 -12.5199 -12.5289 -12.5376 -12.546 -12.5541 -12.5618 -12.5692 0.446926 -12.2414 -12.8178 -12.5961 -12.6021 -12.6078 -12.6133 -12.6186 -12.6236 -12.6285 -12.6331 -12.6375 -12.6417 -12.6457 -12.6495 -12.6532 -12.6567 -12.66 -12.6632 -12.6663 -12.6692 -12.672 -12.6747 -12.6773 -12.6798 -12.6822 -12.6845 -12.6868 -12.6889 -12.691 -12.693 -12.695 -12.6969 -12.6988 -12.7006 -12.7024 -12.7041 -12.7059 -12.7076 -12.7093 -12.711 -12.7126 -12.7143 -12.7159 -12.7176 -12.7192 -12.7209 -12.7226 -12.7243 -12.726 -12.7277 -12.7294 -12.7311 -12.7329 -12.7347 -12.7365 -12.7384 -12.7402 -12.7422 -12.7441 -12.746 -12.748
-22.9888 -22.8169 -21.5697 -20.4564 -19.6407 -18.9464 -18.0349 -17.4399 -17.3656 -17.2671 -17.3538 -17.1977 -16.6659 -16.5742 -15.9291 -15.8405 -16.2559 -16.5976 -16.469 -16.4096 -16.0809 -15.7315 -15.7065 -15.5639 -15.537 -15.4604 -15.4077 -15.3763 -15.3463 -15.3137 -15.258 -15.2471 -15.1447 -15.1556 -15.1658 -15.1755 -15.1845 -15.1929 -15.2007 -15.208 -15.2148 -15.2211 -15.2269 -15.2323 -15.2372 -15.2417 -15.2459 -15.2497 -15.2532 -15.2564 -15.2594 -15.262 -15.2645 -15.2667 -15.2687 -15.2705 -15.2722 -15.2737 -15.275 -15.2763 -15.2774 -15.2783 -15.2792 -15.28 -15.2807 -15.2813 -15.2818 -15.2822 -15.2825 -15.2828 -15.2829 -15.283 -15.2829 -15.2828 -15.2826 -15.2822 -15.2818 -15.2812 -15.2805 -15.2796 -15.2786 -15.2774 -15.2761 -15.2746 -15.2729 -15.271 -15.2688 -15.2665 -15.2639 -15.261 -15.2579 -15.2545 -15.2508 -15.2468 -15.2425 -15.2378 -15.2328 -15.2275 -15.2218 -15.2156 -15.2091 -15.2022 -15.1949 -15.1872 -15.179 -15.1703 -15.1612 -15.1517 -15.1416 -15.1311 -15.1201 -15.1086 -15.0966 -15.0841 -15.0711 -15.0576 -15.0436 -15.0291 -15.0141 -14.9985 -14.9825 -14.966 -14.9489 -14.9314 -14.9134 -14.8948 -14.8759 -14.8564 -14.8365 -14.8161 -14.7953 -14.774 -14.7523 -14.7303 -14.7078 -14.6849 -14.6616 -14.638 -14.614 -14.5897 -14.5651 -14.5401 -14.5149 -14.4894 -14.4636 -14.4375 -14.4112 -14.3847 -14.358 -14.331 -14.3039 -14.2766 -14.2492 -14.2216 -14.1938 -14.166 -14.138 -14.1099 -14.0818 -14.0535 -14.0252 -13.9969 -13.9684 -13.94 -13.9115 -13.8829 -13.8544 -13.8258 -13.7972 -13.7686 -13.74 -13.7114 -13.6828 -13.6543 -13.6257 -13.5971 -13.5685 -13.54 -13.5114 -13.4828 -13.4543 -13.4257 -13.3971 -13.3685 -13.3399 -13.3112 -13.2826 -13.2538 -13.2251 -13.1962 -13.1673 -13.1384 -13.1094 -13.0802 -13.051 -13.0217 -12.9922 -12.9627 -12.933 -12.9032 -12.8733 -12.8432 -12.813 -12.7827 -12.7523 -12.7217 -12.691 -12.6603 -12.6294 -12.5986 -12.5677 -12.5368 -12.506 -12.4753 -12.4448 -12.4145 -12.3846 -12.3551 -12.4859 -12.521 -12.4811 -12.4033 -12.5148 -12.4459 -12.3759 -12.3803 -12.3846 -12.4781 -12.3304 -12.2486 -12.2162 -12.1862 -12.1591 -12.1801 -12.1799 -12.1827 -12.2102 -12.3094 -12.2707 -12.0988 -12.1102 -12.1227 -12.1362 -12.1504 -12.1653 -12.1806 -12.1963 -12.2123 -12.2283 -12.2444 -12.2605 -12.2765 -12.2923 -12.308 -12.3234 -12.3385 -12.3533 -12.3678 -12.3819 -12.3957 -12.4091 -12.4221 -12.4348 -12.447 -12.4589 -12.4704 -12.4815 -12.4922 -12.5026 -12.5125 -12.5222 -12.5314 -12.5403 -12.5489 -12.7109 -12.5651 -12.5727 -12.58 -12.5871 -12.5938 -12.6003 -12.6065 -12.6125 -12.6182 -12.6236 -12.6289 -12.6339 -12.6388 -12.6434 -12.6479 -12.6521 -12.6562 -12.6602 -12.664 -12.6676 -12.6711 -12.6745 -12.6777 -12.6808 -12.6839 -12.6868 -12.6896 -12.6924 -12.695 -12.6976 -12.7001 -12.7026 -12.705 -12.7073 -12.7096 -12.7118 -12.714 -12.7162 -12.7184 -12.7205 -12.7226 -12.7246 -12.7267 -12.7288 -12.7308 -12.7328 -12.7349 -12.7369 -12.739 -12.741 -12.7431 -12.7451 -12.7472 -12.7493 -12.7514 -12.7535 -12.7557 -12.7578 -12.76 -12.7622
-38.987 -28.01 -23.6409 -21.2552 -20.3644 -18.9228 -18.2833 -17.7579 -17.8456 -17.8587 -16.8867 -16.5263 -16.4285 -16.2028 -16.7332 -16.2046 -15.8314 -15.7819 -15.7581 -15.8722 -15.9359 -15.8845 -15.7407 -15.6209 -15.502 -15.4944 -15.4407 -15.4086 -15.3326 -15.3238 -15.3355 -15.2504 -15.131 -15.1417 -15.1518 -15.1613 -15.1702 -15.1785 -15.1863 -15.1935 -15.2002 -15.2065 -15.2122 -15.2176 -15.2225 -15.227 -15.2312 -15.235 -15.2384 -15.2416 -15.2445 -15.2472 -15.2496 -15.2517 -15.2537 -15.2555 -15.257 -15.2585 -15.2597 -15.2609 -15.2619 -15.2627 -15.2635 -15.2641 -15.2647 -15.2651 -15.2654 -15.2657 -15.2658 -15.2659 -15.2658 -15.2657 -15.2654 -15.265 -15.2646 -15.264 -15.2633 -15.2624 -15.2615 -15.2604 -15.2591 -15.2577 -15.2561 -15.2543 -15.2523 -15.2501 -15.2477 -15.2451 -15.2422 -15.2391 -15.2357 -15.232 -15.2281 -15.2238 -15.2193 -15.2144 -15.2091 -15.2036 -15.1976 -15.1913 -15.1846 -15.1775 -15.17 -15.1621 -15.1538 -15.145 -15.1358 -15.1261 -15.1159 -15.1053 -15.0943 -15.0827 -15.0707 -15.0582 -15.0452 -15.0317 -15.0177 -15.0032 -14.9882 -14.9727 -14.9567 -14.9403 -14.9233 -14.9059 -14.888 -14.8696 -14.8508 -14.8315 -14.8117 -14.7915 -14.7709 -14.7498 -14.7284 -14.7065 -14.6842 -14.6615 -14.6385 -14.6151 -14.5913 -14.5673 -14.5428 -14.5181 -14.4931 -14.4678 -14.4422 -14.4164 -14.3903 -14.364 -14.3374 -14.3106 -14.2837 -14.2565 -14.2292 -14.2018 -14.1741 -14.1464 -14.1185 -14.0905 -14.0623 -14.0341 -14.0058 -13.9774 -13.9489 -13.9204 -13.8918 -13.8632 -13.8345 -13.8057 -13.7769 -13.7481 -13.7192 -13.6904 -13.6614 -13.6325 -13.6035 -13.5745 -13.5455 -13.5164 -13.4873 -13.4582 -13.429 -13.3998 -13.3705 -13.3412 -13.3118 -13.2823 -13.2528 -13.2232 -13.1935 -13.1637 -13.1337 -13.1037 -13.0735 -13.0432 -13.0128 -12.9822 -12.9515 -12.9205 -12.8895 -12.8582 -12.8268 -12.7952 -12.7634 -12.7314 -12.6992 -12.6669 -12.6344 -12.6018 -12.5691 -12.5363 -12.5034 -12.4705 -12.4377 -12.4049 -12.3723 -12.3399 -12.3078 -12.2762 -12.4732 -12.4414 -12.3899 -12.3616 -12.3797 -12.3759 -12.3743 -12.2621 -12.3303 -12.2722 -12.3016 -12.1504 -12.0933 -12.0857 -12.0587 -12.08 -12.0821 -12.0857 -12.1136 -12.1236 -12.1804 -12.009 -12.0225 -12.0372 -12.053 -12.0695 -12.0867 -12.1044 -12.1224 -12.1407 -12.159 -12.1774 -12.1958 -12.214 -12.232 -12.2498 -12.2674 -12.2846 -12.3014 -12.3179 -12.334 -12.3498 -12.3651 -12.38 -12.3944 -12.4085 -12.4221 -12.4352 -12.448 -12.4604 -12.4723 -12.4838 -12.4949 -12.5057 -12.516 -12.6173 -12.5356 -12.5449 -12.5538 -12.5624 -12.5707 -12.5786 -12.5863 -12.5936 -12.6007 -12.6075 -12.614 -12.6203 -12.6264 -12.6322 -12.6377 -12.6431 -12.6483 -12.6533 -12.6581 -12.6627 -12.6671 -12.6714 -12.6755 -12.6795 -12.6834 -12.6871 -12.6907 -12.6942 -12.6976 -12.7008 -12.704 -12.7071 -12.7102 -12.7131 -12.716 -12.7188 -12.7215 -12.7242 -12.7269 -12.7295 -12.732 -12.7346 -12.737 -12.7395 -12.7419 -12.7444 -12.7468 -12.7492 -12.7515 -12.7539 -12.7563 -12.7586 -12.761 -12.7633 -12.7657 -12.7681 -12.7704 -12.7728 -12.7752 -12.7776 -12.7801
-39.4066 -33.251 -27.2441 -22.6895 -20.845 -19.5302 -18.7417 -18.0085 -17.4567 -17.165 -16.8846 -16.7749 -16.5377 -16.5384 -16.6534 -16.2992 -16.2652 -15.888 -15.9553 -16.2069 -15.7198 -15.6459 -15.6186 -15.6113 -15.5834 -15.4856 -15.4073 -15.4203 -15.4128 -15.2871 -15.2773 -15.3134 -15.1176 -15.1281 -15.138 -15.1474 -15.1562 -15.1644 -15.1721 -15.1792 -15.1859 -15.1921 -15.1978 -15.2031 -15.208 -15.2125 -15.2166 -15.2204 -15.2239 -15.227 -15.2299 -15.2325 -15.2349 -15.237 -15.2389 -15.2406 -15.2421 -15.2435 -15.2447 -15.2457 -15.2466 -15.2474 -15.248 -15.2485 -15.2489 -15.2492 -15.2494 -15.2495 -15.2494 -15.2493 -15.2491 -15.2487 -15.2483 -15.2477 -15.247 -15.2462 -15.2453 -15.2442 -15.243 -15.2416 -15.2401 -15.2384 -15.2366 -15.2345 -15.2323 -15.2299 -15.2272 -15.2243 -15.2212 -15.2178 -15.2142 -15.2103 -15.2061 -15.2016 -15.1968 -15.1917 -15.1863 -15.1805 -15.1743 -15.1678 -15.161 -15.1537 -15.146 -15.138 -15.1295 -15.1206 -15.1112 -15.1014 -15.0912 -15.0805 -15.0694 -15.0578 -15.0457 -15.0332 -15.0202 -15.0067 -14.9927 -14.9782 -14.9633 -14.9479 -14.932 -14.9156 -14.8988 -14.8815 -14.8637 -14.8454 -14.8267 -14.8076 -14.788 -14.768 -14.7475 -14.7266 -14.7053 -14.6837 -14.6616 -14.6391 -14.6163 -14.5931 -14.5696 -14.5457 -14.5215 -14.497 -14.4722 -14.4471 -14.4217 -14.3961 -14.3702 -14.344 -14.3177 -14.2911 -14.2643 -14.2373 -14.2101 -14.1827 -14.1552 -14.1275 -14.0997 -14.0718 -14.0437 -14.0155 -13.9872 -13.9587 -13.9302 -13.9016 -13.8729 -13.8442 -13.8153 -13.7864 -13.7574 -13.7284 -13.6993 -13.6701 -13.6409 -13.6116 -13.5823 -13.5528 -13.5234 -13.4938 -13.4642 -13.4345 -13.4048 -13.3749 -13.345 -13.315 -13.2848 -13.2546 -13.2242 -13.1937 -13.1631 -13.1324 -13.1015 -13.0704 -13.0391 -13.0077 -12.9761 -12.9443 -12.9123 -12.8801 -12.8477 -12.815 -12.7821 -12.749 -12.7157 -12.6822 -12.6484 -12.6144 -12.5802 -12.5459 -12.5113 -12.4767 -12.4419 -12.4071 -12.3723 -12.3375 -12.3028 -12.2684 -12.2342 -12.2005 -12.2357 -12.3847 -12.3344 -12.2548 -12.2487 -12.3135 -12.1727 -12.2144 -12.1021 -12.0838 -12.0664 -12.0302 -11.9959 -12.0118 -12.0306 -12.0072 -11.988 -12.0132 -12.0233 -12.0535 -12.1173 -11.9225 -11.9382 -11.9551 -11.9731 -11.9919 -12.0114 -12.0314 -12.0517 -12.0722 -12.0928 -12.1134 -12.1339 -12.1543 -12.1744 -12.1943 -12.2139 -12.2331 -12.2519 -12.2704 -12.2884 -12.3059 -12.3231 -12.3397 -12.356 -12.3717 -12.387 -12.4018 -12.4162 -12.4301 -12.4435 -12.4566 -12.4691 -12.4813 -12.493 -12.55 -12.5153 -12.5259 -12.5361 -12.5459 -12.5553 -12.5644 -12.5732 -12.5817 -12.5898 -12.5977 -12.6052 -12.6125 -12.6195 -12.6263 -12.6328 -12.6391 -12.6451 -12.651 -12.6566 -12.662 -12.6672 -12.6723 -12.6771 -12.6819 -12.6864 -12.6908 -12.6951 -12.6992 -12.7032 -12.7071 -12.7109 -12.7146 -12.7181 -12.7216 -12.725 -12.7283 -12.7316 -12.7347 -12.7379 -12.7409 -12.7439 -12.7468 -12.7497 -12.7526 -12.7554 -12.7582 -12.761 -12.7637 -12.7664 -12.7691 -12.7718 -12.7744 -12.7771 -12.7797 -12.7823 -12.7849 -12.7876 -12.7902 -12.7928 -12.7954 -12.7981
-33.0691 -34.3297 -31.8007 -23.7627 -21.4423 -20.4499 -18.5792 -17.883 -17.6386 -17.2096 -16.8795 -16.6953 -17.0822 -16.7512 -17.0865 -16.5708 -16.7023 -16.1963 -17.3669 -16.4619 -15.8572 -15.7253 -15.6551 -15.6019 -15.5958 -15.5209 -15.5116 -15.4312 -15.3794 -15.3217 -15.2204 -15.1884 -15.1289 -15.1165 -15.1262 -15.1354 -15.1441 -15.1522 -15.1598 -15.1668 -15.1734 -15.1796 -15.1853 -15.1905 -15.1954 -15.1998 -15.2039 -15.2077 -15.2111 -15.2143 -15.2171 -15.2197 -15.222 -15.2241 -15.226 -15.2276 -15.2291 -15.2304 -15.2315 -15.2324 -15.2332 -15.2339 -15.2344 -15.2348 -15.2351 -15.2353 -15.2353 -15.2352 -15.235 -15.2347 -15.2343 -15.2338 -15.2331 -15.2324 -15.2315 -15.2305 -15.2293 -15.228 -15.2266 -15.225 -15.2233 -15.2214 -15.2193 -15.217 -15.2145 -15.2118 -15.2089 -15.2058 -15.2025 -15.1989 -15.195 -15.1909 -15.1865 -15.1817 -15.1767 -15.1714 -15.1658 -15.1598 -15.1535 -15.1468 -15.1397 -15.1323 -15.1245 -15.1163 -15.1077 -15.0987 -15.0892 -15.0793 -15.069 -15.0583 -15.0471 -15.0354 -15.0233 -15.0108 -14.9978 -14.9843 -14.9703 -14.9559 -14.941 -14.9256 -14.9098 -14.8935 -14.8768 -14.8596 -14.8419 -14.8238 -14.8052 -14.7862 -14.7668 -14.7469 -14.7267 -14.706 -14.6849 -14.6634 -14.6415 -14.6192 -14.5966 -14.5736 -14.5503 -14.5267 -14.5027 -14.4784 -14.4538 -14.4289 -14.4037 -14.3782 -14.3525 -14.3265 -14.3003 -14.2739 -14.2473 -14.2204 -14.1934 -14.1661 -14.1387 -14.1111 -14.0834 -14.0555 -14.0274 -13.9992 -13.9709 -13.9425 -13.9139 -13.8853 -13.8565 -13.8276 -13.7986 -13.7696 -13.7404 -13.7111 -13.6818 -13.6524 -13.6228 -13.5932 -13.5635 -13.5337 -13.5038 -13.4738 -13.4437 -13.4135 -13.3832 -13.3527 -13.3222 -13.2915 -13.2606 -13.2296 -13.1985 -13.1672 -13.1357 -13.104 -13.0722 -13.0401 -13.0079 -12.9754 -12.9427 -12.9097 -12.8765 -12.8431 -12.8094 -12.7754 -12.7412 -12.7066 -12.6719 -12.6368 -12.6015 -12.5659 -12.5301 -12.4941 -12.4579 -12.4215 -12.3849 -12.3483 -12.3116 -12.2749 -12.2383 -12.2019 -12.1657 -12.1299 -12.0946 -12.1805 -12.1642 -12.2034 -12.1476 -12.161 -12.1085 -12.0152 -12.0145 -12.0157 -11.953 -11.9599 -11.9268 -11.9427 -11.9159 -11.8933 -11.8979 -11.9265 -11.9355 -11.9917 -12.0076 -11.8414 -11.8592 -11.8783 -11.8986 -11.9196 -11.9413 -11.9635 -11.986 -12.0086 -12.0314 -12.0541 -12.0767 -12.0991 -12.1213 -12.1431 -12.1647 -12.1858 -12.2065 -12.2268 -12.2466 -12.266 -12.2848 -12.3032 -12.3211 -12.3385 -12.3554 -12.3717 -12.3876 -12.403 -12.418 -12.4324 -12.4464 -12.4599 -12.5414 -12.644 -12.4979 -12.5097 -12.521 -12.532 -12.5427 -12.5529 -12.5628 -12.5723 -12.5815 -12.5904 -12.5989 -12.6072 -12.6151 -12.6228 -12.6302 -12.6374 -12.6443 -12.6509 -12.6573 -12.6635 -12.6695 -12.6753 -12.6809 -12.6863 -12.6916 -12.6966 -12.7016 -12.7063 -12.7109 -12.7154 -12.7198 -12.724 -12.7281 -12.7321 -12.7361 -12.7399 -12.7436 -12.7472 -12.7508 -12.7543 -12.7577 -12.7611 -12.7643 -12.7676 -12.7708 -12.7739 -12.777 -12.7801 -12.7831 -12.7861 -12.7891 -12.7921 -12.795 -12.7979 -12.8008 -12.8037 -12.8065 -12.8094 -12.8122 -12.8151 -12.8179
-27.0072 -34.6176 -29.6224 -22.9838 -20.9392 -19.6597 -18.7857 -18.0691 -17.8199 -17.1969 -17.4976 -16.859 -17.7877 -17.252 -17.3261 -17.5144 -17.1371 -16.5795 -17.7956 -16.8761 -16.3047 -15.888 -15.6731 -15.69 -15.6363 -15.5383 -15.4618 -15.3614 -15.3498 -15.3175 -15.2585 -15.1581 -15.094 -15.1094 -15.119 -15.128 -15.1365 -15.1445 -15.152 -15.159 -15.1655 -15.1716 -15.1772 -15.1824 -15.1872 -15.1917 -15.1957 -15.1995 -15.2029 -15.206 -15.2088 -15.2113 -15.2136 -15.2157 -15.2175 -15.2191 -15.2205 -15.2217 -15.2228 -15.2237 -15.2244 -15.2249 -15.2254 -15.2257 -15.2258 -15.2258 -15.2258 -15.2255 -15.2252 -15.2247 -15.2242 -15.2235 -15.2226 -15.2217 -15.2206 -15.2194 -15.2181 -15.2166 -15.2149 -15.2131 -15.2112 -15.209 -15.2067 -15.2042 -15.2015 -15.1986 -15.1955 -15.1922 -15.1886 -15.1848 -15.1807 -15.1763 -15.1717 -15.1668 -15.1616 -15.1561 -15.1503 -15.1441 -15.1376 -15.1308 -15.1236 -15.116 -15.108 -15.0997 -15.091 -15.0818 -15.0723 -15.0623 -15.052 -15.0412 -15.0299 -15.0182 -15.0061 -14.9935 -14.9805 -14.967 -14.9531 -14.9387 -14.9239 -14.9086 -14.8928 -14.8766 -14.86 -14.8429 -14.8253 -14.8073 -14.7889 -14.7701 -14.7508 -14.7311 -14.711 -14.6904 -14.6695 -14.6482 -14.6265 -14.6045 -14.5821 -14.5593 -14.5361 -14.5127 -14.4889 -14.4648 -14.4404 -14.4157 -14.3907 -14.3654 -14.3399 -14.3141 -14.288 -14.2618 -14.2353 -14.2086 -14.1816 -14.1545 -14.1272 -14.0997 -14.072 -14.0442 -14.0161 -13.988 -13.9597 -13.9312 -13.9026 -13.8739 -13.845 -13.8161 -13.787 -13.7577 -13.7284 -13.6989 -13.6694 -13.6397 -13.6099 -13.5799 -13.5499 -13.5197 -13.4894 -13.459 -13.4284 -13.3977 -13.3668 -13.3358 -13.3047 -13.2733 -13.2418 -13.2101 -13.1782 -13.1462 -13.1139 -13.0813 -13.0486 -13.0156 -12.9824 -12.9489 -12.9151 -12.8811 -12.8468 -12.8121 -12.7772 -12.742 -12.7065 -12.6706 -12.6345 -12.598 -12.5613 -12.5242 -12.4869 -12.4493 -12.4115 -12.3734 -12.3352 -12.2968 -12.2584 -12.2199 -12.1815 -12.1432 -12.1051 -12.0674 -12.0301 -11.9479 -12.1148 -12.0148 -12.0454 -12.0654 -11.9407 -11.9368 -11.9092 -11.91 -11.8915 -11.8778 -11.8424 -11.8135 -11.8093 -11.833 -11.8145 -11.7999 -11.8994 -11.9391 -12.0012 -11.7686 -11.7886 -11.8099 -11.8323 -11.8555 -11.8793 -11.9036 -11.9282 -11.9529 -11.9777 -12.0024 -12.027 -12.0514 -12.0754 -12.0992 -12.1225 -12.1455 -12.168 -12.19 -12.2115 -12.2326 -12.2531 -12.2731 -12.2925 -12.3115 -12.3299 -12.3477 -12.3651 -12.3819 -12.3983 -12.4141 -12.4294 -12.4442 -12.4586 -12.6324 -12.4859 -12.4989 -12.5114 -12.5236 -12.5353 -12.5466 -12.5576 -12.5681 -12.5783 -12.5882 -12.5977 -12.6069 -12.6158 -12.6243 -12.6326 -12.6406 -12.6483 -12.6558 -12.663 -12.6699 -12.6767 -12.6832 -12.6895 -12.6956 -12.7015 -12.7072 -12.7127 -12.7181 -12.7233 -12.7284 -12.7333 -12.7381 -12.7427 -12.7473 -12.7517 -12.756 -12.7602 -12.7643 -12.7683 -12.7722 -12.776 -12.7798 -12.7835 -12.7871 -12.7906 -12.7941 -12.7976 -12.801 -12.8043 -12.8076 -12.8109 -12.8141 -12.8173 -12.8205 -12.8237 -12.8268 -12.8299 -12.833 -12.836 -12.8391 -12.8421
-23.8992 -24.3003 -23.2273 -21.3095 -20.475 -18.8884 -18.4238 -18.0566 -17.6593 -17.3907 -17.9735 -17.0886 -17.3342 -17.5317 -18.4224 -19.4905 -17.6044 -17.1543 -18.0258 -17.135 -16.5773 -16.0454 -15.648 -15.5721 -15.5858 -15.5102 -15.4556 -15.3531 -15.2976 -15.3315 -15.322 -15.2187 -15.2058 -15.1937 -15.1113 -15.1202 -15.1286 -15.1365 -15.1439 -15.1508 -15.1572 -15.1632 -15.1688 -15.1739 -15.1787 -15.1831 -15.1871 -15.1908 -15.1942 -15.1973 -15.2001 -15.2026 -15.2048 -15.2068 -15.2086 -15.2102 -15.2115 -15.2127 -15.2137 -15.2145 -15.2151 -15.2156 -15.2159 -15.2161 -15.2162 -15.2161 -15.2158 -15.2155 -15.215 -15.2144 -15.2137 -15.2128 -15.2119 -15.2107 -15.2095 -15.2081 -15.2066 -15.2049 -15.203 -15.201 -15.1989 -15.1966 -15.194 -15.1913 -15.1884 -15.1853 -15.182 -15.1784 -15.1747 -15.1706 -15.1664 -15.1618 -15.157 -15.1519 -15.1465 -15.1408 -15.1348 -15.1285 -15.1219 -15.1149 -15.1075 -15.0998 -15.0917 -15.0833 -15.0744 -15.0652 -15.0556 -15.0455 -15.0351 -15.0242 -15.0129 -15.0012 -14.9891 -14.9765 -14.9635 -14.95 -14.9361 -14.9218 -14.907 -14.8918 -14.8761 -14.86 -14.8434 -14.8264 -14.809 -14.7911 -14.7728 -14.7541 -14.735 -14.7154 -14.6955 -14.6751 -14.6544 -14.6333 -14.6118 -14.5899 -14.5677 -14.5451 -14.5222 -14.4989 -14.4753 -14.4514 -14.4272 -14.4026 -14.3778 -14.3527 -14.3274 -14.3018 -14.2759 -14.2498 -14.2234 -14.1968 -14.17 -14.143 -14.1158 -14.0883 -14.0607 -14.0329 -14.005 -13.9768 -13.9485 -13.9201 -13.8914 -13.8627 -13.8337 -13.8046 -13.7754 -13.7461 -13.7166 -13.6869 -13.6571 -13.6272 -13.5971 -13.5669 -13.5365 -13.506 -13.4753 -13.4445 -13.4134 -13.3823 -13.3509 -13.3194 -13.2876 -13.2557 -13.2236 -13.1912 -13.1586 -13.1258 -13.0927 -13.0594 -13.0258 -12.992 -12.9578 -12.9234 -12.8886 -12.8536 -12.8182 -12.7825 -12.7464 -12.7101 -12.6733 -12.6363 -12.5988 -12.5611 -12.523 -12.4845 -12.4458 -12.4067 -12.3674 -12.3278 -12.2881 -12.2481 -12.208 -12.1679 -12.1277 -12.0877 -12.0478 -12.0083 -11.9692 -11.9307 -11.893 -11.8563 -11.9349 -11.9211 -11.8001 -11.8866 -11.8803 -11.8558 -11.7684 -11.7507 -11.7379 -11.7311 -11.7283 -11.7073 -11.7576 -11.8103 -11.8286 -11.867 -11.6794 -11.6998 -11.7219 -11.7453 -11.7698 -11.795 -11.8209 -11.8472 -11.8737 -11.9004 -11.9271 -11.9537 -11.9801 -12.0063 -12.0321 -12.0576 -12.0827 -12.1073 -12.1315 -12.1552 -12.1783 -12.2009 -12.223 -12.2445 -12.2655 -12.2859 -12.3057 -12.325 -12.3437 -12.3619 -12.3796 -12.3967 -12.4133 -12.4293 -12.4449 -12.6425 -12.4746 -12.4887 -12.5024 -12.5156 -12.5284 -12.5408 -12.5527 -12.5643 -12.5755 -12.5863 -12.5967 -12.6068 -12.6165 -12.626 -12.6351 -12.6439 -12.6524 -12.6606 -12.6686 -12.6763 -12.6837 -12.6909 -12.6979 -12.7047 -12.7112 -12.7176 -12.7237 -12.7297 -12.7355 -12.7411 -12.7466 -12.7519 -12.757 -12.7621 -12.767 -12.7717 -12.7764 -12.7809 -12.7854 -12.7897 -12.7939 -12.7981 -12.8022 -12.8061 -12.8101 -12.8139 -12.8177 -12.8214 -12.8251 -12.8287 -12.8322 -12.8358 -12.8392 -12.8427 -12.8461 -12.8494 -12.8528 -12.8561 -12.8593 -12.8626 -12.8658
-21.7056 -21.7089 -23.6196 -21.0522 -19.2199 -18.8406 -18.5799 -18.6375 -18.488 -17.6581 -18.2435 -17.455 -17.672 -18.0681 -18.6236 -19.148 -17.9899 -18.0452 -18.3699 -17.3611 -16.6448 -16.1118 -15.736 -15.5466 -15.4933 -15.4377 -15.4292 -15.3278 -15.2939 -15.2821 -15.1804 -15.2155 -15.1793 -15.1676 -15.1057 -15.1145 -15.1227 -15.1305 -15.1377 -15.1445 -15.1509 -15.1568 -15.1623 -15.1674 -15.1722 -15.1765 -15.1805 -15.1842 -15.1875 -15.1905 -15.1933 -15.1958 -15.198 -15.1999 -15.2017 -15.2032 -15.2045 -15.2056 -15.2065 -15.2072 -15.2078 -15.2082 -15.2084 -15.2085 -15.2085 -15.2083 -15.208 -15.2075 -15.2069 -15.2062 -15.2053 -15.2043 -15.2031 -15.2019 -15.2005 -15.1989 -15.1972 -15.1953 -15.1933 -15.1911 -15.1888 -15.1863 -15.1836 -15.1807 -15.1776 -15.1743 -15.1708 -15.167 -15.163 -15.1588 -15.1544 -15.1497 -15.1447 -15.1394 -15.1338 -15.128 -15.1218 -15.1153 -15.1085 -15.1014 -15.0939 -15.0861 -15.0779 -15.0693 -15.0604 -15.0511 -15.0414 -15.0313 -15.0208 -15.0099 -14.9985 -14.9868 -14.9746 -14.9621 -14.949 -14.9356 -14.9217 -14.9074 -14.8927 -14.8775 -14.8619 -14.8459 -14.8294 -14.8125 -14.7952 -14.7775 -14.7593 -14.7407 -14.7218 -14.7024 -14.6826 -14.6624 -14.6418 -14.6209 -14.5996 -14.5779 -14.5558 -14.5334 -14.5107 -14.4876 -14.4642 -14.4405 -14.4164 -14.3921 -14.3675 -14.3426 -14.3174 -14.2919 -14.2662 -14.2402 -14.214 -14.1875 -14.1608 -14.1339 -14.1068 -14.0795 -14.0519 -14.0242 -13.9963 -13.9682 -13.9399 -13.9114 -13.8827 -13.8539 -13.8249 -13.7957 -13.7664 -13.7369 -13.7072 -13.6774 -13.6474 -13.6173 -13.5869 -13.5564 -13.5258 -13.4949 -13.4639 -13.4326 -13.4012 -13.3696 -13.3378 -13.3057 -13.2735 -13.241 -13.2082 -13.1752 -13.142 -13.1085 -13.0747 -13.0406 -13.0063 -12.9716 -12.9366 -12.9013 -12.8656 -12.8296 -12.7932 -12.7565 -12.7194 -12.682 -12.6441 -12.6059 -12.5673 -12.5283 -12.489 -12.4493 -12.4093 -12.3689 -12.3282 -12.2872 -12.246 -12.2046 -12.163 -12.1213 -12.0796 -12.038 -11.9965 -11.9553 -11.9145 -11.8743 -11.8348 -11.7963 -11.7589 -11.7231 -11.7119 -11.723 -11.744 -11.7433 -11.6718 -11.6768 -11.6638 -11.6335 -11.6312 -11.6342 -11.6846 -11.7207 -11.7615 -11.7999 -11.6154 -11.6378 -11.6619 -11.6873 -11.7138 -11.7409 -11.7687 -11.7968 -11.8252 -11.8536 -11.8821 -11.9104 -11.9385 -11.9663 -11.9938 -12.021 -12.0476 -12.0738 -12.0996 -12.1247 -12.1494 -12.1735 -12.197 -12.2199 -12.2423 -12.2641 -12.2853 -12.3059 -12.3259 -12.3454 -12.3643 -12.3826 -12.4004 -12.4177 -12.4344 -12.4506 -12.4663 -12.4816 -12.4963 -12.5106 -12.5244 -12.5377 -12.5507 -12.5632 -12.5753 -12.587 -12.5983 -12.6092 -12.6198 -12.6301 -12.64 -12.6496 -12.6589 -12.6678 -12.6765 -12.685 -12.6931 -12.701 -12.7086 -12.716 -12.7232 -12.7301 -12.7369 -12.7434 -12.7498 -12.7559 -12.7619 -12.7678 -12.7734 -12.7789 -12.7843 -12.7895 -12.7946 -12.7996 -12.8045 -12.8092 -12.8138 -12.8184 -12.8228 -12.8272 -12.8314 -12.8356 -12.8397 -12.8437 -12.8477 -12.8516 -12.8555 -12.8592 -12.863 -12.8667 -12.8703 -12.8739 -12.8775 -12.881 -12.8845 -12.888 -12.8914
-21.6302 -20.988 -20.6409 -26.4474 -19.4009 -18.9433 -19.1464 -18.9167 -18.1828 -17.8599 -18.6438 -18.0571 -18.0377 -18.4491 -19.234 -21.0983 -18.6388 -17.7142 -17.2787 -17.4406 -16.8758 -16.2271 -15.7893 -15.4819 -15.4262 -15.3939 -15.3831 -15.3284 -15.25 -15.238 -15.2042 -15.213 -15.2019 -15.187 -15.1055 -15.1141 -15.1222 -15.1298 -15.137 -15.1437 -15.1499 -15.1558 -15.1612 -15.1663 -15.1709 -15.1752 -15.1792 -15.1828 -15.1861 -15.1891 -15.1918 -15.1943 -15.1964 -15.1984 -15.2 -15.2015 -15.2028 -15.2038 -15.2047 -15.2053 -15.2058 -15.2062 -15.2063 -15.2063 -15.2062 -15.2059 -15.2055 -15.2049 -15.2042 -15.2033 -15.2023 -15.2012 -15.1999 -15.1985 -15.1969 -15.1952 -15.1933 -15.1913 -15.1891 -15.1868 -15.1842 -15.1815 -15.1787 -15.1756 -15.1723 -15.1688 -15.1651 -15.1612 -15.1571 -15.1527 -15.1481 -15.1432 -15.138 -15.1326 -15.1269 -15.1209 -15.1145 -15.1079 -15.101 -15.0937 -15.0861 -15.0782 -15.0699 -15.0612 -15.0522 -15.0428 -15.033 -15.0229 -15.0123 -15.0014 -14.99 -14.9782 -14.9661 -14.9535 -14.9405 -14.9271 -14.9132 -14.899 -14.8843 -14.8692 -14.8537 -14.8377 -14.8214 -14.8046 -14.7874 -14.7697 -14.7517 -14.7333 -14.7144 -14.6952 -14.6756 -14.6556 -14.6351 -14.6144 -14.5932 -14.5717 -14.5498 -14.5276 -14.5051 -14.4822 -14.459 -14.4354 -14.4116 -14.3874 -14.3629 -14.3382 -14.3132 -14.2879 -14.2623 -14.2365 -14.2104 -14.1841 -14.1575 -14.1307 -14.1037 -14.0764 -14.0489 -14.0213 -13.9934 -13.9653 -13.937 -13.9085 -13.8798 -13.851 -13.8219 -13.7927 -13.7633 -13.7336 -13.7038 -13.6739 -13.6437 -13.6133 -13.5827 -13.552 -13.521 -13.4899 -13.4585 -13.4269 -13.3951 -13.3631 -13.3308 -13.2983 -13.2655 -13.2325 -13.1992 -13.1657 -13.1318 -13.0977 -13.0632 -13.0284 -12.9933 -12.9579 -12.9221 -12.886 -12.8495 -12.8126 -12.7753 -12.7377 -12.6996 -12.6612 -12.6223 -12.5831 -12.5434 -12.5033 -12.4629 -12.422 -12.3808 -12.3392 -12.2973 -12.255 -12.2125 -12.1698 -12.1269 -12.0839 -12.0408 -11.9977 -11.9548 -11.9121 -11.8698 -11.8279 -11.7869 -11.7467 -11.7076 -11.6701 -11.6343 -11.5739 -11.638 -11.6325 -11.5876 -11.591 -11.5769 -11.5691 -11.5889 -11.5947 -11.6489 -11.6853 -11.7681 -11.5397 -11.5621 -11.5865 -11.6125 -11.6398 -11.668 -11.6969 -11.7263 -11.7561 -11.7861 -11.8162 -11.8462 -11.8761 -11.9058 -11.9351 -11.9641 -11.9927 -12.0209 -12.0485 -12.0756 -12.1022 -12.1283 -12.1537 -12.1786 -12.2028 -12.2265 -12.2496 -12.272 -12.2939 -12.3151 -12.3358 -12.3559 -12.3754 -12.3943 -12.4127 -12.4305 -12.4478 -12.4645 -12.4808 -12.4965 -12.5118 -12.5266 -12.5409 -12.5547 -12.5681 -12.5811 -12.5937 -12.6059 -12.6176 -12.629 -12.6401 -12.6508 -12.6611 -12.6711 -12.6808 -12.6902 -12.6993 -12.7081 -12.7167 -12.7249 -12.7329 -12.7407 -12.7483 -12.7556 -12.7627 -12.7696 -12.7763 -12.7828 -12.7891 -12.7952 -12.8012 -12.8071 -12.8127 -12.8183 -12.8236 -12.8289 -12.834 -12.8391 -12.844 -12.8488 -12.8535 -12.8581 -12.8626 -12.867 -12.8713 -12.8756 -12.8798 -12.8839 -12.888 -12.892 -12.8959 -12.8998 -12.9036 -12.9074 -12.9112 -12.9149 -12.9185 -12.9221
-21.8578 -21.1618 -20.3993 -19.9376 -19.773 -19.3247 -19.4128 -18.7893 -18.2302 -18.2091 -19.2107 -18.2641 -17.9582 -18.1732 -18.7051 -19.6379 -18.8582 -17.8356 -17.6036 -17.0786 -16.5808 -16.2545 -15.9014 -15.6208 -15.4041 -15.3947 -15.317 -15.3065 -15.2721 -15.1925 -15.1345 -15.1638 -15.1557 -15.141 -15.1043 -15.1127 -15.1206 -15.1281 -15.1352 -15.1418 -15.1479 -15.1537 -15.1591 -15.164 -15.1687 -15.1729 -15.1768 -15.1804 -15.1836 -15.1866 -15.1893 -15.1917 -15.1938 -15.1957 -15.1973 -15.1988 -15.2 -15.201 -15.2018 -15.2024 -15.2028 -15.2031 -15.2031 -15.2031 -15.2028 -15.2024 -15.2019 -15.2012 -15.2004 -15.1994 -15.1983 -15.197 -15.1956 -15.1941 -15.1924 -15.1905 -15.1885 -15.1863 -15.184 -15.1815 -15.1788 -15.1759 -15.1729 -15.1696 -15.1662 -15.1626 -15.1587 -15.1546 -15.1503 -15.1458 -15.141 -15.1359 -15.1306 -15.125 -15.1192 -15.113 -15.1066 -15.0998 -15.0928 -15.0854 -15.0777 -15.0696 -15.0612 -15.0525 -15.0434 -15.0339 -15.0241 -15.0139 -15.0033 -14.9923 -14.9809 -14.9692 -14.957 -14.9444 -14.9314 -14.918 -14.9042 -14.89 -14.8754 -14.8604 -14.8449 -14.8291 -14.8128 -14.7961 -14.779 -14.7615 -14.7436 -14.7253 -14.7066 -14.6875 -14.668 -14.6482 -14.6279 -14.6073 -14.5863 -14.565 -14.5433 -14.5213 -14.4989 -14.4762 -14.4531 -14.4298 -14.4061 -14.3821 -14.3578 -14.3333 -14.3084 -14.2832 -14.2578 -14.2321 -14.2062 -14.18 -14.1535 -14.1268 -14.0999 -14.0728 -14.0454 -14.0177 -13.9899 -13.9618 -13.9336 -13.9051 -13.8764 -13.8475 -13.8184 -13.7891 -13.7596 -13.7298 -13.6999 -13.6698 -13.6394 -13.6089 -13.5781 -13.5471 -13.5159 -13.4845 -13.4528 -13.4209 -13.3887 -13.3563 -13.3236 -13.2907 -13.2575 -13.224 -13.1902 -13.1561 -13.1217 -13.0869 -13.0518 -13.0164 -12.9807 -12.9445 -12.908 -12.8712 -12.8339 -12.7962 -12.7581 -12.7196 -12.6807 -12.6413 -12.6016 -12.5614 -12.5207 -12.4797 -12.4382 -12.3963 -12.354 -12.3114 -12.2683 -12.225 -12.1814 -12.1375 -12.0934 -12.0492 -12.0049 -11.9606 -11.9164 -11.8724 -11.8288 -11.7856 -11.7431 -11.7015 -11.661 -11.6219 -11.5844 -11.6404 -11.517 -11.5333 -11.5071 -11.5093 -11.5168 -11.5327 -11.508 -11.5589 -11.5931 -11.6311 -11.6274 -11.4897 -11.5139 -11.54 -11.5677 -11.5965 -11.6263 -11.6567 -11.6877 -11.719 -11.7504 -11.7819 -11.8133 -11.8446 -11.8756 -11.9063 -11.9367 -11.9666 -11.996 -12.025 -12.0534 -12.0813 -12.1086 -12.1353 -12.1613 -12.1868 -12.2117 -12.2359 -12.2596 -12.2826 -12.305 -12.3267 -12.3479 -12.3685 -12.3885 -12.4079 -12.4268 -12.445 -12.4628 -12.48 -12.4967 -12.5129 -12.5286 -12.5438 -12.5585 -12.5728 -12.5866 -12.6 -12.613 -12.6256 -12.6377 -12.6495 -12.661 -12.672 -12.6828 -12.6931 -12.7032 -12.713 -12.7224 -12.7316 -12.7404 -12.7491 -12.7574 -12.7655 -12.7734 -12.781 -12.7884 -12.7956 -12.8026 -12.8094 -12.8161 -12.8225 -12.8288 -12.8349 -12.8408 -12.8466 -12.8523 -12.8578 -12.8632 -12.8685 -12.8736 -12.8786 -12.8836 -12.8884 -12.8931 -12.8978 -12.9023 -12.9068 -12.9112 -12.9155 -12.9198 -12.9239 -12.9281 -12.9321 -12.9361 -12.9401 -12.944 -12.9478 -12.9516
-21.6096 -20.9753 -20.684 -20.2613 -19.7062 -19.8242 -19.1535 -18.6415 -18.9394 -18.8042 -19.4367 -18.2447 -17.6424 -17.8298 -18.1398 -17.9953 -18.3894 -18.0945 -18.7146 -17.7411 -16.751 -16.1704 -15.9077 -15.6243 -15.431 -15.3289 -15.2741 -15.2408 -15.2515 -15.1473 -15.1843 -15.169 -15.1777 -15.0964 -15.1051 -15.1134 -15.1212 -15.1285 -15.1354 -15.1419 -15.148 -15.1537 -15.159 -15.1639 -15.1684 -15.1726 -15.1765 -15.18 -15.1832 -15.1861 -15.1888 -15.1911 -15.1932 -15.1951 -15.1967 -15.1981 -15.1992 -15.2002 -15.2009 -15.2015 -15.2018 -15.202 -15.202 -15.2019 -15.2016 -15.2011 -15.2005 -15.1997 -15.1987 -15.1977 -15.1964 -15.195 -15.1935 -15.1918 -15.19 -15.188 -15.1858 -15.1835 -15.181 -15.1784 -15.1756 -15.1726 -15.1694 -15.166 -15.1624 -15.1586 -15.1546 -15.1503 -15.1459 -15.1412 -15.1362 -15.1311 -15.1256 -15.1199 -15.1139 -15.1076 -15.1011 -15.0942 -15.087 -15.0795 -15.0717 -15.0636 -15.0551 -15.0463 -15.0371 -15.0276 -15.0177 -15.0074 -14.9968 -14.9858 -14.9744 -14.9626 -14.9504 -14.9379 -14.9249 -14.9116 -14.8978 -14.8836 -14.8691 -14.8541 -14.8387 -14.823 -14.8068 -14.7902 -14.7732 -14.7558 -14.738 -14.7199 -14.7013 -14.6824 -14.6631 -14.6433 -14.6233 -14.6028 -14.582 -14.5609 -14.5393 -14.5175 -14.4953 -14.4727 -14.4499 -14.4267 -14.4032 -14.3794 -14.3552 -14.3308 -14.3061 -14.2811 -14.2559 -14.2303 -14.2045 -14.1784 -14.1521 -14.1255 -14.0987 -14.0716 -14.0443 -14.0167 -13.9889 -13.9609 -13.9327 -13.9042 -13.8755 -13.8466 -13.8174 -13.7881 -13.7585 -13.7287 -13.6986 -13.6684 -13.6379 -13.6071 -13.5762 -13.545 -13.5135 -13.4818 -13.4499 -13.4176 -13.3852 -13.3524 -13.3194 -13.286 -13.2524 -13.2184 -13.1842 -13.1496 -13.1147 -13.0794 -13.0438 -13.0078 -12.9714 -12.9346 -12.8975 -12.8599 -12.8219 -12.7835 -12.7447 -12.7055 -12.6657 -12.6256 -12.585 -12.544 -12.5025 -12.4605 -12.4182 -12.3754 -12.3322 -12.2886 -12.2446 -12.2003 -12.1557 -12.1108 -12.0658 -12.0205 -11.9752 -11.9299 -11.8846 -11.8396 -11.7949 -11.7506 -11.707 -11.6642 -11.6225 -11.5821 -11.5434 -11.5067 -11.5656 -11.4232 -11.4605 -11.4835 -11.4449 -11.4587 -11.4576 -11.5347 -11.5466 -11.5657 -11.4251 -11.4486 -11.4743 -11.5019 -11.5309 -11.5611 -11.5922 -11.6239 -11.6561 -11.6886 -11.7212 -11.7539 -11.7866 -11.819 -11.8512 -11.8831 -11.9147 -11.9457 -11.9764 -12.0065 -12.036 -12.0651 -12.0935 -12.1213 -12.1485 -12.1751 -12.201 -12.2264 -12.2511 -12.2751 -12.2986 -12.3214 -12.3436 -12.3652 -12.3861 -12.4065 -12.4263 -12.4456 -12.4643 -12.4824 -12.5 -12.517 -12.5336 -12.7321 -12.5652 -12.5803 -12.5949 -12.6091 -12.6228 -12.6362 -12.6491 -12.6616 -12.6737 -12.6855 -12.6969 -12.7079 -12.7186 -12.729 -12.7391 -12.7488 -12.7583 -12.7675 -12.7764 -12.785 -12.7934 -12.8016 -12.8095 -12.8172 -12.8247 -12.8319 -12.839 -12.8459 -12.8526 -12.8591 -12.8655 -12.8717 -12.8777 -12.8836 -12.8893 -12.895 -12.9004 -12.9058 -12.9111 -12.9162 -12.9212 -12.9262 -12.931 -12.9357 -12.9404 -12.945 -12.9495 -12.9539 -12.9582 -12.9625 -12.9667 -12.9709 -12.975 -12.979 -12.983
-21.9445 -21.9146 -20.4633 -20.4998 -20.122 -19.2523 -19.0449 -19.19 -19.6794 -18.7917 -18.7512 -18.3461 -17.6108 -17.3064 -17.2296 -17.8508 -17.6674 -18.1047 -19.1509 -17.9475 -16.9679 -16.2715 -15.8041 -15.6117 -15.4408 -15.3607 -15.2148 -15.2036 -15.2136 -15.0647 -15.1671 -15.1335 -15.1005 -15.1036 -15.1121 -15.1202 -15.1279 -15.1351 -15.1419 -15.1483 -15.1543 -15.1599 -15.1651 -15.1699 -15.1744 -15.1785 -15.1823 -15.1858 -15.189 -15.1918 -15.1944 -15.1968 -15.1988 -15.2006 -15.2022 -15.2035 -15.2046 -15.2055 -15.2062 -15.2067 -15.207 -15.2071 -15.2071 -15.2069 -15.2065 -15.2059 -15.2052 -15.2043 -15.2033 -15.2021 -15.2008 -15.1993 -15.1976 -15.1958 -15.1939 -15.1918 -15.1895 -15.187 -15.1844 -15.1816 -15.1787 -15.1755 -15.1722 -15.1687 -15.1649 -15.161 -15.1568 -15.1525 -15.1479 -15.143 -15.138 -15.1326 -15.1271 -15.1212 -15.1151 -15.1087 -15.102 -15.0951 -15.0878 -15.0802 -15.0723 -15.0641 -15.0555 -15.0466 -15.0374 -15.0278 -15.0179 -15.0076 -14.9969 -14.9859 -14.9745 -14.9627 -14.9505 -14.938 -14.9251 -14.9117 -14.898 -14.8839 -14.8694 -14.8545 -14.8392 -14.8235 -14.8074 -14.791 -14.7741 -14.7568 -14.7392 -14.7211 -14.7027 -14.6839 -14.6647 -14.6452 -14.6253 -14.605 -14.5843 -14.5633 -14.542 -14.5203 -14.4983 -14.4759 -14.4532 -14.4302 -14.4069 -14.3832 -14.3593 -14.335 -14.3105 -14.2856 -14.2605 -14.2351 -14.2094 -14.1835 -14.1573 -14.1308 -14.104 -14.0771 -14.0498 -14.0223 -13.9946 -13.9666 -13.9384 -13.9099 -13.8812 -13.8523 -13.8231 -13.7937 -13.7641 -13.7342 -13.704 -13.6737 -13.643 -13.6122 -13.581 -13.5496 -13.518 -13.486 -13.4538 -13.4213 -13.3886 -13.3555 -13.3221 -13.2884 -13.2544 -13.2201 -13.1854 -13.1504 -13.115 -13.0792 -13.0431 -13.0066 -12.9697 -12.9323 -12.8946 -12.8564 -12.8178 -12.7788 -12.7393 -12.6994 -12.659 -12.6181 -12.5768 -12.535 -12.4928 -12.4501 -12.4069 -12.3634 -12.3194 -12.275 -12.2302 -12.1851 -12.1397 -12.094 -12.0482 -12.0021 -11.956 -11.9098 -11.8638 -11.8179 -11.7724 -11.7273 -11.6829 -11.6393 -11.5967 -11.5555 -11.5158 -11.4782 -11.6026 -11.5013 -11.4518 -11.4266 -11.4089 -11.3995 -11.4244 -11.4554 -11.4942 -11.5096 -11.3966 -11.4212 -11.4481 -11.4767 -11.5067 -11.5379 -11.5699 -11.6026 -11.6358 -11.6693 -11.7029 -11.7366 -11.7702 -11.8036 -11.8369 -11.8697 -11.9023 -11.9344 -11.966 -11.9971 -12.0277 -12.0577 -12.0871 -12.116 -12.1442 -12.1718 -12.1987 -12.225 -12.2507 -12.2757 -12.3001 -12.3239 -12.347 -12.3695 -12.3914 -12.4127 -12.4334 -12.4535 -12.473 -12.492 -12.5104 -12.5283 -12.5457 -12.745 -12.5789 -12.5947 -12.6101 -12.6251 -12.6395 -12.6536 -12.6672 -12.6804 -12.6932 -12.7056 -12.7176 -12.7293 -12.7406 -12.7516 -12.7622 -12.7726 -12.7826 -12.7923 -12.8018 -12.8109 -12.8198 -12.8285 -12.8369 -12.845 -12.853 -12.8607 -12.8682 -12.8755 -12.8826 -12.8895 -12.8963 -12.9029 -12.9093 -12.9155 -12.9216 -12.9276 -12.9334 -12.9391 -12.9446 -12.9501 -12.9554 -12.9606 -12.9657 -12.9707 -12.9756 -12.9804 -12.9852 -12.9898 -12.9944 -12.9989 -13.0033 -13.0077 -13.012 -13.0162 -13.0204
-22.817 -22.6083 -20.8695 -21.2197 -20.6446 -19.9777 -20.1744 -19.4012 -19.4841 -18.6538 -18.1128 -17.7686 -17.5283 -17.3143 -17.1924 -17.0749 -17.946 -17.6452 -18.9416 -17.7772 -17.2758 -16.3472 -15.882 -15.5286 -15.4029 -15.3235 -15.2882 -15.0562 -15.13 -15.0976 -15.0814 -15.136 -15.1003 -15.1091 -15.1175 -15.1254 -15.1329 -15.14 -15.1466 -15.1529 -15.1588 -15.1643 -15.1694 -15.1742 -15.1786 -15.1827 -15.1864 -15.1898 -15.193 -15.1958 -15.1983 -15.2006 -15.2026 -15.2044 -15.2059 -15.2072 -15.2082 -15.2091 -15.2097 -15.2102 -15.2104 -15.2105 -15.2104 -15.2101 -15.2096 -15.209 -15.2082 -15.2073 -15.2061 -15.2049 -15.2034 -15.2018 -15.2001 -15.1982 -15.1961 -15.1939 -15.1915 -15.1889 -15.1862 -15.1833 -15.1802 -15.1769 -15.1734 -15.1698 -15.1659 -15.1618 -15.1576 -15.1531 -15.1483 -15.1434 -15.1382 -15.1327 -15.127 -15.1211 -15.1149 -15.1084 -15.1016 -15.0945 -15.0871 -15.0795 -15.0715 -15.0632 -15.0546 -15.0456 -15.0363 -15.0267 -15.0167 -15.0064 -14.9957 -14.9847 -14.9733 -14.9615 -14.9493 -14.9368 -14.9239 -14.9106 -14.897 -14.8829 -14.8685 -14.8536 -14.8384 -14.8228 -14.8068 -14.7904 -14.7737 -14.7565 -14.739 -14.7211 -14.7028 -14.6842 -14.6651 -14.6457 -14.626 -14.6058 -14.5854 -14.5645 -14.5433 -14.5218 -14.5 -14.4778 -14.4552 -14.4324 -14.4092 -14.3858 -14.362 -14.3379 -14.3135 -14.2888 -14.2638 -14.2385 -14.213 -14.1872 -14.1611 -14.1347 -14.1081 -14.0812 -14.054 -14.0266 -13.9989 -13.971 -13.9428 -13.9144 -13.8857 -13.8568 -13.8276 -13.7981 -13.7684 -13.7385 -13.7083 -13.6778 -13.6471 -13.6161 -13.5848 -13.5532 -13.5214 -13.4892 -13.4568 -13.4241 -13.391 -13.3577 -13.324 -13.29 -13.2557 -13.221 -13.1859 -13.1505 -13.1147 -13.0785 -13.0419 -13.0049 -12.9675 -12.9297 -12.8915 -12.8528 -12.8136 -12.774 -12.734 -12.6934 -12.6525 -12.611 -12.569 -12.5266 -12.4838 -12.4404 -12.3967 -12.3524 -12.3078 -12.2628 -12.2174 -12.1716 -12.1256 -12.0792 -12.0327 -11.9861 -11.9393 -11.8926 -11.846 -11.7996 -11.7535 -11.7079 -11.663 -11.6189 -11.5759 -11.5341 -11.4941 -11.456 -11.4203 -11.5473 -11.4251 -11.4025 -11.3614 -11.4644 -11.4698 -11.4553 -11.4254 -11.4208 -11.3749 -11.4001 -11.4275 -11.4567 -11.4873 -11.5191 -11.5517 -11.5851 -11.619 -11.6531 -11.6875 -11.7219 -11.7563 -11.7906 -11.8246 -11.8583 -11.8916 -11.9246 -11.9571 -11.9891 -12.0205 -12.0514 -12.0817 -12.1114 -12.1405 -12.1689 -12.1968 -12.224 -12.2505 -12.2764 -12.3017 -12.3263 -12.3503 -12.3736 -12.3963 -12.4185 -12.44 -12.4609 -12.4812 -12.501 -12.5202 -12.5389 -12.557 -12.5746 -12.5917 -12.8363 -12.6243 -12.6399 -12.6551 -12.6698 -12.6841 -12.6979 -12.7113 -12.7244 -12.737 -12.7493 -12.7612 -12.7727 -12.7839 -12.7948 -12.8054 -12.8156 -12.8256 -12.8353 -12.8447 -12.8538 -12.8626 -12.8713 -12.8796 -12.8878 -12.8957 -12.9034 -12.9109 -12.9182 -12.9254 -12.9323 -12.9391 -12.9456 -12.9521 -12.9584 -12.9645 -12.9705 -12.9763 -12.9821 -12.9877 -12.9932 -12.9985 -13.0038 -13.0089 -13.014 -13.019 -13.0238 -13.0286 -13.0333 -13.038 -13.0425 -13.047 -13.0514 -13.0557
-24.047 -23.3445 -22.3832 -22.0174 -21.1937 -20.6634 -20.3112 -20.8271 -19.327 -18.48 -18.1403 -18.0251 -17.7637 -17.6743 -17.7064 -17.1398 -17.4333 -18.5156 -20.5576 -18.8766 -17.5455 -16.5201 -15.9409 -15.4017 -15.3218 -15.4731 -15.2364 -15.1296 -15.0695 -15.1481 -15.0897 -15.0535 -15.1082 -15.1168 -15.1249 -15.1327 -15.14 -15.147 -15.1535 -15.1597 -15.1655 -15.1709 -15.1759 -15.1806 -15.1849 -15.1889 -15.1926 -15.196 -15.1991 -15.2018 -15.2043 -15.2066 -15.2085 -15.2103 -15.2117 -15.213 -15.214 -15.2148 -15.2154 -15.2158 -15.216 -15.216 -15.2158 -15.2155 -15.2149 -15.2142 -15.2134 -15.2123 -15.2111 -15.2098 -15.2082 -15.2066 -15.2047 -15.2027 -15.2005 -15.1982 -15.1957 -15.193 -15.1902 -15.1871 -15.1839 -15.1805 -15.177 -15.1732 -15.1692 -15.165 -15.1606 -15.156 -15.1512 -15.1461 -15.1408 -15.1352 -15.1294 -15.1234 -15.117 -15.1104 -15.1036 -15.0964 -15.089 -15.0812 -15.0731 -15.0648 -15.0561 -15.0471 -15.0378 -15.0281 -15.0181 -15.0078 -14.9971 -14.986 -14.9746 -14.9628 -14.9507 -14.9382 -14.9253 -14.9121 -14.8984 -14.8844 -14.8701 -14.8553 -14.8402 -14.8247 -14.8088 -14.7925 -14.7758 -14.7588 -14.7414 -14.7236 -14.7055 -14.687 -14.6681 -14.6488 -14.6292 -14.6092 -14.5889 -14.5683 -14.5472 -14.5259 -14.5042 -14.4822 -14.4598 -14.4371 -14.4141 -14.3908 -14.3672 -14.3433 -14.319 -14.2945 -14.2697 -14.2445 -14.2191 -14.1934 -14.1675 -14.1412 -14.1147 -14.0879 -14.0608 -14.0335 -14.0059 -13.978 -13.9499 -13.9215 -13.8928 -13.8639 -13.8347 -13.8052 -13.7755 -13.7455 -13.7152 -13.6846 -13.6538 -13.6227 -13.5913 -13.5596 -13.5276 -13.4953 -13.4626 -13.4297 -13.3964 -13.3629 -13.3289 -13.2946 -13.26 -13.225 -13.1896 -13.1538 -13.1177 -13.0811 -13.0442 -13.0068 -12.9689 -12.9307 -12.892 -12.8528 -12.8132 -12.7731 -12.7326 -12.6916 -12.6501 -12.6081 -12.5656 -12.5227 -12.4793 -12.4355 -12.3912 -12.3464 -12.3013 -12.2557 -12.2098 -12.1636 -12.1171 -12.0703 -12.0234 -11.9763 -11.9292 -11.8821 -11.8351 -11.7884 -11.7421 -11.6963 -11.6512 -11.6069 -11.5638 -11.5221 -11.4821 -11.4442 -11.4088 -11.3766 -11.3481 -11.3923 -11.3967 -11.3906 -11.4142 -11.3984 -11.4147 -11.3417 -11.4552 -11.3891 -11.4165 -11.4458 -11.4766 -11.5086 -11.5415 -11.5753 -11.6095 -11.6441 -11.679 -11.7139 -11.7489 -11.7837 -11.8183 -11.8526 -11.8867 -11.9203 -11.9534 -11.9861 -12.0183 -12.0499 -12.081 -12.1115 -12.1413 -12.1705 -12.1991 -12.2271 -12.2544 -12.2811 -12.3071 -12.3325 -12.3572 -12.3814 -12.4049 -12.4277 -12.45 -12.4717 -12.4927 -12.5132 -12.5332 -12.5525 -12.5714 -12.5896 -12.6074 -12.6246 -12.6414 -12.6577 -12.6735 -12.6888 -12.7037 -12.7181 -12.7322 -12.7458 -12.759 -12.7718 -12.7843 -12.7964 -12.8081 -12.8195 -12.8306 -12.8413 -12.8518 -12.8619 -12.8718 -12.8813 -12.8906 -12.8997 -12.9085 -12.917 -12.9254 -12.9335 -12.9414 -12.949 -12.9565 -12.9638 -12.9709 -12.9778 -12.9846 -12.9912 -12.9976 -13.0039 -13.0101 -13.0161 -13.022 -13.0277 -13.0333 -13.0388 -13.0442 -13.0495 -13.0547 -13.0598 -13.0648 -13.0697 -13.0745 -13.0793 -13.0839 -13.0885 -13.093
