ncols 336
nrows 32
xllcorner -102.783330282
yllcorner 25.6666666754
cellsize 0.0833333333
NODATA_value -9999
-40.0535 -38.4334 -40.6187 -49.0488 -49.8949 -46.1685 -45.4047 -47.8599 -42.7883 -49.839 -38.8204 -35.2342 -34.4869 -31.1771 -29.3543 -26.5252 -26.9824 -28.1936 -27.1732 -27.384 -26.1155 -24.9962 -24.4462 -24.1019 -23.1942 -22.6321 -22.0923 -21.5308 -20.9051 -20.1308 -19.3032 -20.2551 -19.6088 -20.3164 -20.356 -19.8286 -19.7152 -19.1159 -18.5783 -18.7565 -19.1119 -18.9923 -18.4059 -18.1847 -17.597 -17.5267 -18.1543 -18.0554 -17.9099 -17.6428 -16.945 -16.6824 -16.6043 -17.0676 -17.6702 -17.458 -16.7824 -15.9902 -16.3138 -16.9928 -16.7753 -16.3237 -16.1726 -16.1869 -15.9311 -15.7339 -15.5431 -15.4974 -15.4968 -15.4557 -15.3902 -15.3227 -15.2256 -15.1928 -15.236 -15.236 -15.236 -15.236 -15.236 -15.236 -15.236 -15.236 -15.236 -15.236 -15.236 -15.236 -15.236 -15.236 -15.236 -15.236 -15.236 -15.236 -15.236 -15.236 -15.236 -15.236 -15.236 -15.236 -15.236 -15.236 -15.236 -15.236 -15.236 -15.236 -15.236 -15.236 -15.236 -15.236 -15.236 -15.236 -15.236 -15.236 -15.236 -15.236 -15.236 -15.236 -15.236 -15.236 -15.236 -15.236 -15.236 -15.236 -15.236 -15.236 -15.236 -15.236 -15.236 -15.236 -15.236 -15.236 -15.236 -15.236 -15.236 -15.236 -15.236 -15.236 -15.236 -15.236 -15.236 -15.236 -15.236 -15.236 -15.236 -15.236 -15.236 -15.236 -15.236 -15.236 -15.236 -15.236 -15.236 -15.236 -15.236 -15.236 -15.236 -15.236 -15.236 -15.236 -15.236 -15.236 -15.236 -15.236 -15.236 -15.236 -15.236 -15.236 -15.236 -15.236 -15.236 -15.236 -15.236 -15.236 -15.236 -15.236 -15.236 -15.236 -15.236 -15.236 -15.236 -15.236 -15.236 -15.236 -15.236 -15.236 -15.236 -15.236 -15.236 -15.236 -15.236 -15.236 -15.236 -15.236 -15.236 -15.236 -15.236 -15.236 -15.236 -15.236 -15.236 -15.236 -15.236 -15.236 -15.236 -15.236 -15.236 -15.236 -15.236 -15.236 -15.236 -15.236 -15.236 -15.236 -15.236 -15.236 -15.236 -15.236 -15.236 -15.236 -15.236 -15.236 -15.236 -15.236 -15.236 -15.236 -15.236 -15.236 -15.236 -15.236 -15.236 -15.236 -15.236 -15.236 -15.236 -15.236 -15.236 -15.236 -15.236 -15.236 -15.236 -15.236 -15.236 -15.236 -15.6257 -15.713 -15.8436 -15.9283 -15.9674 -16.1704 -16.0611 -16.0141 -16.1244 -16.0365 -16.1429 -16.1894 -16.1441 -15.9521 -15.7985 -15.672 -15.4989 -15.7558 -15.6888 -15.733 -15.5361 -15.4751 -15.3649 -15.4523 -15.236 -15.236 -15.236 -15.236 -15.236 -15.236 -15.236 -15.236 -15.236 -15.236 -15.236 -15.236 -15.236 -15.236 -15.236 -15.236 -15.236 -15.236 -15.236 -15.236 -15.236 -15.236 -15.236 -15.236 -15.236 -15.236 -15.236 -15.236 -15.236 -15.236 -15.236 -15.236 -15.236 -15.236 -15.236 -15.236 -15.236 -15.236 -15.236 -15.236 -15.236 -15.236 -15.236 -15.236 -15.236 -15.236 -15.236 -15.236 -15.236 -15.236 -15.236 -15.236 -15.236 -15.236 -15.236 -15.236 -15.236 -15.236 -15.236 -15.236 -15.236 -15.236 -15.236 -15.236 -15.236 -15.236 -15.236 -15.236 -15.236 -15.236
-46.5395 -40.3212 -42.3204 -43.0668 -44.3346 -53.4801 -45.5063 -49.9472 -46.1109 -48.7099 -42.8337 -31.4331 -32.4687 -29.7129 -27.6084 -27.3864 -26.0237 -26.3231 -25.8724 -25.1793 -26.0807 -27.3373 -26.0232 -26.0683 -24.2572 -23.3557 -22.3578 -21.8543 -21.0674 -20.1525 -19.7539 -19.0732 -19.7906 -19.8625 -20.0558 -19.9399 -19.3282 -18.8717 -19.0148 -19.7209 -19.1809 -18.6002 -18.5119 -18.1667 -17.5785 -17.3367 -17.6113 -17.8841 -17.4735 -17.1193 -16.891 -17.1663 -17.5898 -17.5981 -17.6907 -17.0978 -17.1703 -17.1512 -15.9598 -16.4494 -16.5836 -16.3277 -16.0457 -15.8484 -15.7177 -15.5665 -15.4621 -15.4162 -15.4166 -15.3308 -15.2007 -15.3716 -15.1977 -15.1977 -15.1977 -15.1977 -15.1977 -15.1977 -15.1977 -15.1977 -15.1977 -15.1977 -15.1977 -15.1977 -15.1977 -15.1977 -15.1977 -15.1977 -15.1977 -15.1977 -15.1977 -15.1977 -15.1977 -15.1977 -15.1977 -15.1977 -15.1977 -15.1977 -15.1977 -15.1977 -15.1977 -15.1977 -15.1977 -15.1977 -15.1977 -15.1977 -15.1977 -15.1977 -15.1977 -15.1977 -15.1977 -15.1977 -15.1977 -15.1977 -15.1977 -15.1977 -15.1977 -15.1977 -15.1977 -15.1977 -15.1977 -15.1977 -15.1977 -15.1977 -15.1977 -15.1977 -15.1977 -15.1977 -15.1977 -15.1977 -15.1977 -15.1977 -15.1977 -15.1977 -15.1977 -15.1977 -15.1977 -15.1977 -15.1977 -15.1977 -15.1977 -15.1977 -15.1977 -15.1977 -15.1977 -15.1977 -15.1977 -15.1977 -15.1977 -15.1977 -15.1977 -15.1977 -15.1977 -15.1977 -15.1977 -15.1977 -15.1977 -15.1977 -15.1977 -15.1977 -15.1977 -15.1977 -15.1977 -15.1977 -15.1977 -15.1977 -15.1977 -15.1977 -15.1977 -15.1977 -15.1977 -15.1977 -15.1977 -15.1977 -15.1977 -15.1977 -15.1977 -15.1977 -15.1977 -15.1977 -15.1977 -15.1977 -15.1977 -15.1977 -15.1977 -15.1977 -15.1977 -15.1977 -15.1977 -15.1977 -15.1977 -15.1977 -15.1977 -15.1977 -15.1977 -15.1977 -15.1977 -15.1977 -15.1977 -15.1977 -15.1977 -15.1977 -15.1977 -15.1977 -15.1977 -15.1977 -15.1977 -15.1977 -15.1977 -15.1977 -15.1977 -15.1977 -15.1977 -15.1977 -15.1977 -15.1977 -15.1977 -15.1977 -15.1977 -15.1977 -15.1977 -15.1977 -15.1977 -15.1977 -15.1977 -15.1977 -15.1977 -15.1977 -15.1977 -15.1977 -15.1977 -15.1977 -15.1977 -15.1977 -15.1977 -15.1977 -15.1977 -15.1977 -15.1977 -15.1977 -15.1977 -15.5004 -15.5634 -15.5663 -15.7609 -15.7384 -15.8473 -15.9549 -15.9305 -16.0371 -16.0393 -16.0829 -16.1054 -16.1708 -16.1531 -15.8262 -15.7635 -15.5185 -15.739 -15.6383 -15.7171 -15.7373 -15.5659 -15.4812 -15.3497 -15.4334 -15.1977 -15.1977 -15.1977 -15.1977 -15.1977 -15.1977 -15.1977 -15.1977 -15.1977 -15.1977 -15.1977 -15.1977 -15.1977 -15.1977 -15.1977 -15.1977 -15.1977 -15.1977 -15.1977 -15.1977 -15.1977 -15.1977 -15.1977 -15.1977 -15.1977 -15.1977 -15.1977 -15.1977 -15.1977 -15.1977 -15.1977 -15.1977 -15.1977 -15.1977 -15.1977 -15.1977 -15.1977 -15.1977 -15.1977 -15.1977 -15.1977 -15.1977 -15.1977 -15.1977 -15.1977 -15.1977 -15.1977 -15.1977 -15.1977 -15.1977 -15.1977 -15.1977 -15.1977 -15.1977 -15.1977 -15.1977 -15.1977 -15.1977 -15.1977 -15.1977 -15.1977 -15.1977 -15.1977 -15.1977 -15.1977 -15.1977 -15.1977 -15.1977 -15.1977 -15.1977
-45.6312 -42.6543 -45.3558 -44.4966 -42.547 -48.134 -51.1879 -40.4537 -43.1338 -45.4018 -36.1111 -30.8098 -28.291 -26.7709 -28.0274 -25.7323 -25.1876 -24.4939 -24.5821 -24.3261 -24.6694 -25.6996 -26.213 -26.6287 -25.6391 -24.1687 -23.001 -22.1367 -21.4436 -20.8518 -20.1925 -19.6558 -19.2644 -19.4011 -19.6688 -20.2591 -19.3779 -19.0774 -19.7945 -19.2016 -19.2346 -19.195 -18.5053 -17.8351 -17.5263 -17.3092 -17.1143 -17.141 -16.9884 -16.8442 -17.3172 -18.0985 -17.965 -18.3067 -17.9943 -17.2076 -16.7209 -16.5074 -16.2945 -15.8596 -16.2732 -16.0792 -15.8791 -15.7933 -15.6425 -15.3859 -15.4277 -15.3615 -15.1655 -15.1655 -15.1439 -15.1655 -15.1655 -15.1655 -15.1655 -15.1655 -15.1655 -15.1655 -15.1655 -15.1655 -15.1655 -15.1655 -15.1655 -15.1655 -15.1655 -15.1655 -15.1655 -15.1655 -15.1655 -15.1655 -15.1655 -15.1655 -15.1655 -15.1655 -15.1655 -15.1655 -15.1655 -15.1655 -15.1655 -15.1655 -15.1655 -15.1655 -15.1655 -15.1655 -15.1655 -15.1655 -15.1655 -15.1655 -15.1655 -15.1655 -15.1655 -15.1655 -15.1655 -15.1655 -15.1655 -15.1655 -15.1655 -15.1655 -15.1655 -15.1655 -15.1655 -15.1655 -15.1655 -15.1655 -15.1655 -15.1655 -15.1655 -15.1655 -15.1655 -15.1655 -15.1655 -15.1655 -15.1655 -15.1655 -15.1655 -15.1655 -15.1655 -15.1655 -15.1655 -15.1655 -15.1655 -15.1655 -15.1655 -15.1655 -15.1655 -15.1655 -15.1655 -15.1655 -15.1655 -15.1655 -15.1655 -15.1655 -15.1655 -15.1655 -15.1655 -15.1655 -15.1655 -15.1655 -15.1655 -15.1655 -15.1655 -15.1655 -15.1655 -15.1655 -15.1655 -15.1655 -15.1655 -15.1655 -15.1655 -15.1655 -15.1655 -15.1655 -15.1655 -15.1655 -15.1655 -15.1655 -15.1655 -15.1655 -15.1655 -15.1655 -15.1655 -15.1655 -15.1655 -15.1655 -15.1655 -15.1655 -15.1655 -15.1655 -15.1655 -15.1655 -15.1655 -15.1655 -15.1655 -15.1655 -15.1655 -15.1655 -15.1655 -15.1655 -15.1655 -15.1655 -15.1655 -15.1655 -15.1655 -15.1655 -15.1655 -15.1655 -15.1655 -15.1655 -15.1655 -15.1655 -15.1655 -15.1655 -15.1655 -15.1655 -15.1655 -15.1655 -15.1655 -15.1655 -15.1655 -15.1655 -15.1655 -15.1655 -15.1655 -15.1655 -15.1655 -15.1655 -15.1655 -15.1655 -15.1655 -15.1655 -15.1655 -15.1655 -15.1655 -15.1655 -15.1655 -15.1655 -15.1655 -15.1655 -15.1655 -15.1655 -15.1655 -15.252 -15.4887 -15.642 -15.6854 -15.5803 -15.6368 -15.6847 -16.0269 -16.0668 -16.3364 -16.1373 -16.0415 -16.095 -16.2674 -15.8383 -15.6429 -15.6156 -15.6617 -15.6412 -15.6838 -15.6441 -15.598 -15.4069 -15.2743 -15.3374 -15.252 -15.1655 -15.1655 -15.1655 -15.1655 -15.1655 -15.1655 -15.1655 -15.1655 -15.1655 -15.1655 -15.1655 -15.1655 -15.1655 -15.1655 -15.1655 -15.1655 -15.1655 -15.1655 -15.1655 -15.1655 -15.1655 -15.1655 -15.1655 -15.1655 -15.1655 -15.1655 -15.1655 -15.1655 -15.1655 -15.1655 -15.1655 -15.1655 -15.1655 -15.1655 -15.1655 -15.1655 -15.1655 -15.1655 -15.1655 -15.1655 -15.1655 -15.1655 -15.1655 -15.1655 -15.1655 -15.1655 -15.1655 -15.1655 -15.1655 -15.1655 -15.1655 -15.1655 -15.1655 -15.1655 -15.1655 -15.1655 -15.1655 -15.1655 -15.1655 -15.1655 -15.1655 -15.1655 -15.1655 -15.1655 -15.1655 -15.1655 -15.1655 -15.1655 -15.1655
-45.716 -43.7942 -47.986 -47.1371 -42.1275 -45.9004 -45.5058 -43.1566 -39.1559 -38.4676 -42.9869 -31.5348 -28.708 -26.2431 -25.5029 -27.0166 -24.9343 -24.2047 -24.1765 -23.8353 -23.8901 -25.9537 -26.3787 -27.9043 -30.2329 -25.6603 -24.1323 -22.3865 -21.5658 -20.8292 -20.0083 -19.8243 -19.9378 -19.0139 -19.0949 -19.7363 -20.0054 -19.5803 -19.8332 -20.5404 -19.6138 -19.1462 -18.5612 -18.1056 -17.4651 -17.8918 -17.4552 -16.9931 -17.4662 -17.7054 -17.7827 -18.2082 -19.2135 -18.5989 -17.6836 -17.6543 -16.8036 -16.937 -16.3317 -15.7615 -15.795 -16.0029 -15.7891 -15.527 -15.4618 -15.4346 -15.3298 -15.2651 -15.1353 -15.33 -15.1353 -15.2002 -15.1353 -15.1353 -15.1353 -15.1353 -15.1353 -15.1353 -15.1353 -15.1353 -15.1353 -15.1353 -15.1353 -15.1353 -15.1353 -15.1353 -15.1353 -15.1353 -15.1353 -15.1353 -15.1353 -15.1353 -15.1353 -15.1353 -15.1353 -15.1353 -15.1353 -15.1353 -15.1353 -15.1353 -15.1353 -15.1353 -15.1353 -15.1353 -15.1353 -15.1353 -15.1353 -15.1353 -15.1353 -15.1353 -15.1353 -15.1353 -15.1353 -15.1353 -15.1353 -15.1353 -15.1353 -15.1353 -15.1353 -15.1353 -15.1353 -15.1353 -15.1353 -15.1353 -15.1353 -15.1353 -15.1353 -15.1353 -15.1353 -15.1353 -15.1353 -15.1353 -15.1353 -15.1353 -15.1353 -15.1353 -15.1353 -15.1353 -15.1353 -15.1353 -15.1353 -15.1353 -15.1353 -15.1353 -15.1353 -15.1353 -15.1353 -15.1353 -15.1353 -15.1353 -15.1353 -15.1353 -15.1353 -15.1353 -15.1353 -15.1353 -15.1353 -15.1353 -15.1353 -15.1353 -15.1353 -15.1353 -15.1353 -15.1353 -15.1353 -15.1353 -15.1353 -15.1353 -15.1353 -15.1353 -15.1353 -15.1353 -15.1353 -15.1353 -15.1353 -15.1353 -15.1353 -15.1353 -15.1353 -15.1353 -15.1353 -15.1353 -15.1353 -15.1353 -15.1353 -15.1353 -15.1353 -15.1353 -15.1353 -15.1353 -15.1353 -15.1353 -15.1353 -15.1353 -15.1353 -15.1353 -15.1353 -15.1353 -15.1353 -15.1353 -15.1353 -15.1353 -15.1353 -15.1353 -15.1353 -15.1353 -15.1353 -15.1353 -15.1353 -15.1353 -15.1353 -15.1353 -15.1353 -15.1353 -15.1353 -15.1353 -15.1353 -15.1353 -15.1353 -15.1353 -15.1353 -15.1353 -15.1353 -15.1353 -15.1353 -15.1353 -15.1353 -15.1353 -15.1353 -15.1353 -15.1353 -15.1353 -15.1353 -15.1353 -15.1353 -15.1353 -15.1353 -15.1353 -15.1353 -15.1353 -15.1353 -15.4815 -15.3097 -15.4816 -15.527 -15.6568 -15.7595 -15.7809 -15.9977 -15.9759 -16.517 -15.9611 -16.1053 -16.1492 -16.0115 -15.8101 -15.6191 -15.6138 -15.4806 -15.6536 -15.6979 -15.655 -15.6346 -15.504 -15.2697 -15.3061 -15.3731 -15.0704 -15.1353 -15.1353 -15.1353 -15.1353 -15.1353 -15.1353 -15.1353 -15.1353 -15.1353 -15.1353 -15.1353 -15.1353 -15.1353 -15.1353 -15.1353 -15.1353 -15.1353 -15.1353 -15.1353 -15.1353 -15.1353 -15.1353 -15.1353 -15.1353 -15.1353 -15.1353 -15.1353 -15.1353 -15.1353 -15.1353 -15.1353 -15.1353 -15.1353 -15.1353 -15.1353 -15.1353 -15.1353 -15.1353 -15.1353 -15.1353 -15.1353 -15.1353 -15.1353 -15.1353 -15.1353 -15.1353 -15.1353 -15.1353 -15.1353 -15.1353 -15.1353 -15.1353 -15.1353 -15.1353 -15.1353 -15.1353 -15.1353 -15.1353 -15.1353 -15.1353 -15.1353 -15.1353 -15.1353 -15.1353 -15.1353 -15.1353 -15.1353 -15.1353
-48.2068 -44.5862 -42.1957 -41.4723 -44.5571 -55.3411 -44.3546 -44.5145 -39.5074 -38.299 -51.8366 -36.8531 -29.1935 -26.2006 -25.1846 -24.542 -24.209 -23.6723 -23.367 -23.708 -23.2621 -24.5467 -24.6959 -26.9668 -28.5697 -26.021 -24.5282 -22.7055 -21.6002 -21.032 -20.3412 -20.3336 -19.6592 -19.3985 -18.7232 -18.9496 -19.4152 -19.5476 -19.2168 -20.1557 -19.4329 -18.7455 -18.2069 -17.8085 -17.9641 -17.9012 -17.2476 -17.2727 -17.838 -18.0705 -18.0948 -18.9857 -19.0527 -18.7247 -18.3133 -17.7456 -17.2171 -16.6876 -16.4496 -16.0176 -15.4504 -15.842 -15.7114 -15.5795 -15.514 -15.4536 -15.3203 -15.2142 -15.2952 -15.1036 -15.2117 -15.1036 -15.1036 -15.1036 -15.1036 -15.1036 -15.1036 -15.1036 -15.1036 -15.1036 -15.1036 -15.1036 -15.1036 -15.1036 -15.1036 -15.1036 -15.1036 -15.1036 -15.1036 -15.1036 -15.1036 -15.1036 -15.1036 -15.1036 -15.1036 -15.1036 -15.1036 -15.1036 -15.1036 -15.1036 -15.1036 -15.1036 -15.1036 -15.1036 -15.1036 -15.1036 -15.1036 -15.1036 -15.1036 -15.1036 -15.1036 -15.1036 -15.1036 -15.1036 -15.1036 -15.1036 -15.1036 -15.1036 -15.1036 -15.1036 -15.1036 -15.1036 -15.1036 -15.1036 -15.1036 -15.1036 -15.1036 -15.1036 -15.1036 -15.1036 -15.1036 -15.1036 -15.1036 -15.1036 -15.1036 -15.1036 -15.1036 -15.1036 -15.1036 -15.1036 -15.1036 -15.1036 -15.1036 -15.1036 -15.1036 -15.1036 -15.1036 -15.1036 -15.1036 -15.1036 -15.1036 -15.1036 -15.1036 -15.1036 -15.1036 -15.1036 -15.1036 -15.1036 -15.1036 -15.1036 -15.1036 -15.1036 -15.1036 -15.1036 -15.1036 -15.1036 -15.1036 -15.1036 -15.1036 -15.1036 -15.1036 -15.1036 -15.1036 -15.1036 -15.1036 -15.1036 -15.1036 -15.1036 -15.1036 -15.1036 -15.1036 -15.1036 -15.1036 -15.1036 -15.1036 -15.1036 -15.1036 -15.1036 -15.1036 -15.1036 -15.1036 -15.1036 -15.1036 -15.1036 -15.1036 -15.1036 -15.1036 -15.1036 -15.1036 -15.1036 -15.1036 -15.1036 -15.1036 -15.1036 -15.1036 -15.1036 -15.1036 -15.1036 -15.1036 -15.1036 -15.1036 -15.1036 -15.1036 -15.1036 -15.1036 -15.1036 -15.1036 -15.1036 -15.1036 -15.1036 -15.1036 -15.1036 -15.1036 -15.1036 -15.1036 -15.1036 -15.1036 -15.1036 -15.1036 -15.1036 -15.1036 -15.1036 -15.1036 -15.1036 -15.1036 -15.1036 -15.1036 -15.1036 -15.1036 -15.1036 -15.1036 -15.3847 -15.1036 -15.1036 -15.1685 -15.4116 -15.492 -15.7344 -15.9297 -15.9281 -16.3086 -16.0532 -15.9214 -16.1002 -15.9891 -15.8916 -15.7315 -15.5378 -15.4071 -15.5137 -15.6441 -15.7081 -15.5347 -15.4729 -15.2549 -15.2771 -15.341 -15.2334 -15.1036 -15.1036 -15.1036 -15.1036 -15.1036 -15.1036 -15.1036 -15.1036 -15.1036 -15.1036 -15.1036 -15.1036 -15.1036 -15.1036 -15.1036 -15.1036 -15.1036 -15.1036 -15.1036 -15.1036 -15.1036 -15.1036 -15.1036 -15.1036 -15.1036 -15.1036 -15.1036 -15.1036 -15.1036 -15.1036 -15.1036 -15.1036 -15.1036 -15.1036 -15.1036 -15.1036 -15.1036 -15.1036 -15.1036 -15.1036 -15.1036 -15.1036 -15.1036 -15.1036 -15.1036 -15.1036 -15.1036 -15.1036 -15.1036 -15.1036 -15.1036 -15.1036 -15.1036 -15.1036 -15.1036 -15.1036 -15.1036 -15.1036 -15.1036 -15.1036 -15.1036 -15.1036 -15.1036 -15.1036 -15.1036 -15.1036 -15.1036 -15.1036
-44.7771 -44.035 -43.6906 -41.4024 -41.32 -45.9294 -50.2425 -43.8653 -43.2065 -42.5117 -46.965 -50.7552 -36.478 -29.1509 -26.6487 -25.701 -24.7604 -23.9421 -23.4982 -22.83 -22.6717 -22.9279 -23.4655 -24.6683 -26.6743 -27.3942 -24.5556 -22.471 -21.4438 -20.75 -20.5211 -20.3878 -19.3664 -19.197 -19.0646 -18.76 -19.4389 -19.7739 -18.8437 -19.3875 -20.2564 -19.0478 -18.4782 -18.1795 -18.0177 -18.0521 -17.9387 -17.5446 -18.0106 -18.8393 -18.4963 -19.1566 -18.847 -18.1124 -18.0105 -17.3784 -16.8994 -16.6015 -16.1246 -15.8172 -15.5911 -15.6762 -15.158 -15.1214 -15.3802 -15.3054 -15.2213 -15.2289 -15.0774 -15.0774 -15.0774 -15.0774 -15.0774 -15.0774 -15.0774 -15.0774 -15.0774 -15.0774 -15.0774 -15.0774 -15.0774 -15.0774 -15.0774 -15.0774 -15.0774 -15.0774 -15.0774 -15.0774 -15.0774 -15.0774 -15.0774 -15.0774 -15.0774 -15.0774 -15.0774 -15.0774 -15.0774 -15.0774 -15.0774 -15.0774 -15.0774 -15.0774 -15.0774 -15.0774 -15.0774 -15.0774 -15.0774 -15.0774 -15.0774 -15.0774 -15.0774 -15.0774 -15.0774 -15.0774 -15.0774 -15.0774 -15.0774 -15.0774 -15.0774 -15.0774 -15.0774 -15.0774 -15.0774 -15.0774 -15.0774 -15.0774 -15.0774 -15.0774 -15.0774 -15.0774 -15.0774 -15.0774 -15.0774 -15.0774 -15.0774 -15.0774 -15.0774 -15.0774 -15.0774 -15.0774 -15.0774 -15.0774 -15.0774 -15.0774 -15.0774 -15.0774 -15.0774 -15.0774 -15.0774 -15.0774 -15.0774 -15.0774 -15.0774 -15.0774 -15.0774 -15.0774 -15.0774 -15.0774 -15.0774 -15.0774 -15.0774 -15.0774 -15.0774 -15.0774 -15.0774 -15.0774 -15.0774 -15.0774 -15.0774 -15.0774 -15.0774 -15.0774 -15.0774 -15.0774 -15.0774 -15.0774 -15.0774 -15.0774 -15.0774 -15.0774 -15.0774 -15.0774 -15.0774 -15.0774 -15.0774 -15.0774 -15.0774 -15.0774 -15.0774 -15.0774 -15.0774 -15.0774 -15.0774 -15.0774 -15.0774 -15.0774 -15.0774 -15.0774 -15.0774 -15.0774 -15.0774 -15.0774 -15.0774 -15.0774 -15.0774 -15.0774 -15.0774 -15.0774 -15.0774 -15.0774 -15.0774 -15.0774 -15.0774 -15.0774 -15.0774 -15.0774 -15.0774 -15.0774 -15.0774 -15.0774 -15.0774 -15.0774 -15.0774 -15.0774 -15.0774 -15.0774 -15.0774 -15.0774 -15.0774 -15.0774 -15.0774 -15.0774 -15.0774 -15.0774 -15.0774 -15.0774 -15.0774 -15.0774 -15.0774 -15.0774 -15.5145 -15.2515 -15.0774 -15.0774 -15.0774 -15.3802 -15.3756 -15.448 -15.7742 -15.8071 -15.8771 -16.1953 -15.8352 -16.1073 -15.9005 -16.1494 -15.8553 -15.5763 -15.3612 -15.3787 -15.4482 -15.5967 -15.6411 -15.4897 -15.2282 -15.2281 -15.2716 -15.2942 -15.0774 -15.0774 -15.0774 -15.0774 -15.0774 -15.0774 -15.0774 -15.0774 -15.0774 -15.0774 -15.0774 -15.0774 -15.0774 -15.0774 -15.0774 -15.0774 -15.0774 -15.0774 -15.0774 -15.0774 -15.0774 -15.0774 -15.0774 -15.0774 -15.0774 -15.0774 -15.0774 -15.0774 -15.0774 -15.0774 -15.0774 -15.0774 -15.0774 -15.0774 -15.0774 -15.0774 -15.0774 -15.0774 -15.0774 -15.0774 -15.0774 -15.0774 -15.0774 -15.0774 -15.0774 -15.0774 -15.0774 -15.0774 -15.0774 -15.0774 -15.0774 -15.0774 -15.0774 -15.0774 -15.0774 -15.0774 -15.0774 -15.0774 -15.0774 -15.0774 -15.0774 -15.0774 -15.0774 -15.0774 -15.0774 -15.0774 -15.0774 -15.0774
-48.5018 -45.1517 -44.6742 -43.3618 -41.2404 -44.5711 -45.361 -48.0466 -50.8709 -47.2273 -40.8434 -46.4267 -40.5537 -38.0906 -40.3166 -38.9389 -28.2276 -25.2057 -23.7765 -23.2322 -22.649 -22.1738 -22.5379 -23.0582 -23.693 -24.5409 -23.0065 -21.967 -20.9265 -20.5034 -20.7401 -19.9059 -19.2775 -19.1288 -18.9511 -18.3028 -18.7337 -18.9859 -18.5341 -19.2988 -19.8769 -18.932 -18.4151 -18.2857 -18.3569 -18.0897 -18.2892 -18.0098 -18.1655 -18.7602 -19.9984 -18.7955 -18.1916 -18.3732 -17.5474 -17.2494 -16.7001 -16.3983 -16.115 -15.8118 -15.6182 -15.6391 -15.5311 -15.4039 -15.3775 -15.0531 -15.0531 -15.0531 -15.0531 -15.0531 -15.0531 -15.0531 -15.0531 -15.0531 -15.0531 -15.0531 -15.0531 -15.0531 -15.0531 -15.0531 -15.0531 -15.0531 -15.0531 -15.0531 -15.0531 -15.0531 -15.0531 -15.0531 -15.0531 -15.0531 -15.0531 -15.0531 -15.0531 -15.0531 -15.0531 -15.0531 -15.0531 -15.0531 -15.0531 -15.0531 -15.0531 -15.0531 -15.0531 -15.0531 -15.0531 -15.0531 -15.0531 -15.0531 -15.0531 -15.0531 -15.0531 -15.0531 -15.0531 -15.0531 -15.0531 -15.0531 -15.0531 -15.0531 -15.0531 -15.0531 -15.0531 -15.0531 -15.0531 -15.0531 -15.0531 -15.0531 -15.0531 -15.0531 -15.0531 -15.0531 -15.0531 -15.0531 -15.0531 -15.0531 -15.0531 -15.0531 -15.0531 -15.0531 -15.0531 -15.0531 -15.0531 -15.0531 -15.0531 -15.0531 -15.0531 -15.0531 -15.0531 -15.0531 -15.0531 -15.0531 -15.0531 -15.0531 -15.0531 -15.0531 -15.0531 -15.0531 -15.0531 -15.0531 -15.0531 -15.0531 -15.0531 -15.0531 -15.0531 -15.0531 -15.0531 -15.0531 -15.0531 -15.0531 -15.0531 -15.0531 -15.0531 -15.0531 -15.0531 -15.0531 -15.0531 -15.0531 -15.0531 -15.0531 -15.0531 -15.0531 -15.0531 -15.0531 -15.0531 -15.0531 -15.0531 -15.0531 -15.0531 -15.0531 -15.0531 -15.0531 -15.0531 -15.0531 -15.0531 -15.0531 -15.0531 -15.0531 -15.0531 -15.0531 -15.0531 -15.0531 -15.0531 -15.0531 -15.0531 -15.0531 -15.0531 -15.0531 -15.0531 -15.0531 -15.0531 -15.0531 -15.0531 -15.0531 -15.0531 -15.0531 -15.0531 -15.0531 -15.0531 -15.0531 -15.0531 -15.0531 -15.0531 -15.0531 -15.0531 -15.0531 -15.0531 -15.0531 -15.0531 -15.0531 -15.0531 -15.0531 -15.0531 -15.0531 -15.0531 -15.0531 -15.0531 -15.0531 -15.0531 -15.0531 -15.0531 -15.0531 -14.9882 -15.2447 -15.0653 -15.0531 -15.0531 -15.1612 -15.635 -15.6981 -15.8087 -16.2482 -15.9701 -16.2249 -15.9214 -16.2047 -16.0265 -16.2685 -15.7681 -15.5646 -15.6844 -15.5086 -15.5065 -15.5499 -15.5273 -15.4873 -15.2513 -15.1827 -15.2259 -15.2504 -15.0531 -15.0531 -15.0531 -15.0531 -15.0531 -15.0531 -15.0531 -15.0531 -15.0531 -15.0531 -15.0531 -15.0531 -15.0531 -15.0531 -15.0531 -15.0531 -15.0531 -15.0531 -15.0531 -15.0531 -15.0531 -15.0531 -15.0531 -15.0531 -15.0531 -15.0531 -15.0531 -15.0531 -15.0531 -15.0531 -15.0531 -15.0531 -15.0531 -15.0531 -15.0531 -15.0531 -15.0531 -15.0531 -15.0531 -15.0531 -15.0531 -15.0531 -15.0531 -15.0531 -15.0531 -15.0531 -15.0531 -15.0531 -15.0531 -15.0531 -15.0531 -15.0531 -15.0531 -15.0531 -15.0531 -15.0531 -15.0531 -15.0531 -15.0531 -15.0531 -15.0531 -15.0531 -15.0531 -15.0531 -15.0531 -15.0531 -15.0531 -15.0531
-46.7702 -50.4586 -47.229 -46.4047 -41.1951 -42.1107 -45.4445 -44.7888 -45.2243 -40.395 -42.2266 -36.1329 -35.1002 -32.7769 -31.1195 -32.3624 -32.6019 -25.8134 -24.3545 -23.6125 -22.9893 -22.5585 -21.8251 -21.9987 -21.8934 -21.9 -21.5367 -20.9515 -20.9753 -20.3022 -20.4767 -19.9121 -19.6675 -19.7989 -19.3663 -19.0169 -18.2723 -18.643 -18.1239 -19.3931 -19.4881 -19.2461 -18.6871 -18.4961 -18.2682 -18.2618 -18.3952 -18.8208 -18.7203 -19.2916 -19.0327 -19.2087 -18.6721 -17.957 -17.4981 -17.0253 -16.655 -16.309 -15.9844 -15.7655 -15.5707 -15.4616 -15.44 -15.312 -15.2433 -15.2677 -15.028 -15.028 -15.028 -15.028 -15.028 -15.028 -15.028 -15.028 -15.028 -15.028 -15.028 -15.028 -15.028 -15.028 -15.028 -15.028 -15.028 -15.028 -15.028 -15.028 -15.028 -15.028 -15.028 -15.028 -15.028 -15.028 -15.028 -15.028 -15.028 -15.028 -15.028 -15.028 -15.028 -15.028 -15.028 -15.028 -15.028 -15.028 -15.028 -15.028 -15.028 -15.028 -15.028 -15.028 -15.028 -15.028 -15.028 -15.028 -15.028 -15.028 -15.028 -15.028 -15.028 -15.028 -15.028 -15.028 -15.028 -15.028 -15.028 -15.028 -15.028 -15.028 -15.028 -15.028 -15.028 -15.028 -15.028 -15.028 -15.028 -15.028 -15.028 -15.028 -15.028 -15.028 -15.028 -15.028 -15.028 -15.028 -15.028 -15.028 -15.028 -15.028 -15.028 -15.028 -15.028 -15.028 -15.028 -15.028 -15.028 -15.028 -15.028 -15.028 -15.028 -15.028 -15.028 -15.028 -15.028 -15.028 -15.028 -15.028 -15.028 -15.028 -15.028 -15.028 -15.028 -15.028 -15.028 -15.028 -15.028 -15.028 -15.028 -15.028 -15.028 -15.028 -15.028 -15.028 -15.028 -15.028 -15.028 -15.028 -15.028 -15.028 -15.028 -15.028 -15.028 -15.028 -15.028 -15.028 -15.028 -15.028 -15.028 -15.028 -15.028 -15.028 -15.028 -15.028 -15.028 -15.028 -15.028 -15.028 -15.028 -15.028 -15.028 -15.028 -15.028 -15.028 -15.028 -15.028 -15.028 -15.028 -15.028 -15.028 -15.028 -15.028 -15.028 -15.028 -15.028 -15.028 -15.028 -15.028 -15.028 -15.028 -15.028 -15.028 -15.028 -15.028 -15.028 -15.028 -15.028 -15.028 -15.028 -15.028 -15.028 -15.028 -15.028 -15.0045 -15.028 -15.028 -15.0064 -15.3727 -15.6726 -15.7466 -15.8532 -15.9478 -15.9757 -15.9599 -15.7919 -15.9422 -16.0626 -15.9581 -15.6561 -15.5911 -15.7889 -15.4839 -15.4818 -15.5038 -15.5038 -15.5032 -15.2928 -15.2019 -15.2442 -15.2873 -15.2217 -15.028 -15.028 -15.028 -15.028 -15.028 -15.028 -15.028 -15.028 -15.028 -15.028 -15.028 -15.028 -15.028 -15.028 -15.028 -15.028 -15.028 -15.028 -15.028 -15.028 -15.028 -15.028 -15.028 -15.028 -15.028 -15.028 -15.028 -15.028 -15.028 -15.028 -15.028 -15.028 -15.028 -15.028 -15.028 -15.028 -15.028 -15.028 -15.028 -15.028 -15.028 -15.028 -15.028 -15.028 -15.028 -15.028 -15.028 -15.028 -15.028 -15.028 -15.028 -15.028 -15.028 -15.028 -15.028 -15.028 -15.028 -15.028 -15.028 -15.028 -15.028 -15.028 -15.028 -15.028 -15.028 -15.028 -15.028
-49.0003 -56.4481 -50.3096 -46.7861 -42.7561 -41.2351 -46.3448 -48.6775 -47.4988 -40.5939 -36.8291 -37.1979 -32.8137 -31.337 -31.2704 -28.8776 -28.2352 -25.4727 -25.1972 -23.7467 -22.9109 -23.5681 -21.9494 -21.4421 -21.1716 -21.0867 -20.9831 -20.7454 -20.835 -20.3524 -20.1119 -20.1787 -20.2534 -20.7799 -19.7135 -19.4054 -19.0151 -18.2287 -17.8174 -18.0682 -19.2478 -18.7473 -19.1623 -18.8487 -18.5919 -18.9987 -19.1482 -19.5108 -19.9446 -20.0252 -19.279 -18.7079 -18.0386 -17.6058 -17.2639 -16.8101 -16.4192 -16.0944 -15.8557 -15.6173 -15.4643 -15.3333 -15.2895 -15.3128 -15.2256 -15.0304 -15.1591 -15.0078 -15.0078 -15.0078 -15.0078 -15.0078 -15.0078 -15.0078 -15.0078 -15.0078 -15.0078 -15.0078 -15.0078 -15.0078 -15.0078 -15.0078 -15.0078 -15.0078 -15.0078 -15.0078 -15.0078 -15.0078 -15.0078 -15.0078 -15.0078 -15.0078 -15.0078 -15.0078 -15.0078 -15.0078 -15.0078 -15.0078 -15.0078 -15.0078 -15.0078 -15.0078 -15.0078 -15.0078 -15.0078 -15.0078 -15.0078 -15.0078 -15.0078 -15.0078 -15.0078 -15.0078 -15.0078 -15.0078 -15.0078 -15.0078 -15.0078 -15.0078 -15.0078 -15.0078 -15.0078 -15.0078 -15.0078 -15.0078 -15.0078 -15.0078 -15.0078 -15.0078 -15.0078 -15.0078 -15.0078 -15.0078 -15.0078 -15.0078 -15.0078 -15.0078 -15.0078 -15.0078 -15.0078 -15.0078 -15.0078 -15.0078 -15.0078 -15.0078 -15.0078 -15.0078 -15.0078 -15.0078 -15.0078 -15.0078 -15.0078 -15.0078 -15.0078 -15.0078 -15.0078 -15.0078 -15.0078 -15.0078 -15.0078 -15.0078 -15.0078 -15.0078 -15.0078 -15.0078 -15.0078 -15.0078 -15.0078 -15.0078 -15.0078 -15.0078 -15.0078 -15.0078 -15.0078 -15.0078 -15.0078 -15.0078 -15.0078 -15.0078 -15.0078 -15.0078 -15.0078 -15.0078 -15.0078 -15.0078 -15.0078 -15.0078 -15.0078 -15.0078 -15.0078 -15.0078 -15.0078 -15.0078 -15.0078 -15.0078 -15.0078 -15.0078 -15.0078 -15.0078 -15.0078 -15.0078 -15.0078 -15.0078 -15.0078 -15.0078 -15.0078 -15.0078 -15.0078 -15.0078 -15.0078 -15.0078 -15.0078 -15.0078 -15.0078 -15.0078 -15.0078 -15.0078 -15.0078 -15.0078 -15.0078 -15.0078 -15.0078 -15.0078 -15.0078 -15.0078 -15.0078 -15.0078 -15.0078 -15.0078 -15.0078 -15.0078 -15.0078 -15.0078 -15.0078 -15.0078 -15.0078 -15.0078 -15.0078 -15.0078 -15.0078 -15.0078 -15.0078 -15.0078 -15.0078 -15.0726 -15.2669 -15.2266 -15.4563 -15.6564 -15.9144 -15.9185 -15.8278 -15.8091 -15.6115 -15.7878 -15.6197 -15.8458 -15.7481 -15.5732 -15.5245 -15.5288 -15.3563 -15.4823 -15.5037 -15.5054 -15.3583 -15.1993 -15.1575 -15.2239 -15.2014 -15.0078 -15.0078 -15.0078 -15.0078 -15.0078 -15.0078 -15.0078 -15.0078 -15.0078 -15.0078 -15.0078 -15.0078 -15.0078 -15.0078 -15.0078 -15.0078 -15.0078 -15.0078 -15.0078 -15.0078 -15.0078 -15.0078 -15.0078 -15.0078 -15.0078 -15.0078 -15.0078 -15.0078 -15.0078 -15.0078 -15.0078 -15.0078 -15.0078 -15.0078 -15.0078 -15.0078 -15.0078 -15.0078 -15.0078 -15.0078 -15.0078 -15.0078 -15.0078 -15.0078 -15.0078 -15.0078 -15.0078 -15.0078 -15.0078 -15.0078 -15.0078 -15.0078 -15.0078 -15.0078 -15.0078 -15.0078 -15.0078 -15.0078 -15.0078 -15.0078 -15.0078 -15.0078 -15.0078 -15.0078 -15.0078 -15.0078 -15.0078
-43.1457 -57.455 -56.1623 -47.3373 -44.6104 -41.1116 -42.8555 -45.1471 -44.2773 -42.8144 -41.0283 -38.7632 -32.6631 -30.6869 -31.8951 -35.6505 -27.0276 -25.6243 -24.3214 -23.7806 -22.9356 -22.2633 -21.6548 -21.5707 -21.2516 -20.7236 -20.835 -20.6565 -20.4625 -20.3302 -20.0909 -20.0345 -19.7454 -20.2461 -20.3493 -19.1883 -18.8378 -18.3912 -18.1783 -18.2513 -18.2503 -18.3976 -19.4286 -18.7653 -18.8106 -19.3299 -20.6308 -20.5757 -20.1851 -19.7815 -19.1733 -18.4766 -17.8728 -17.375 -17.0452 -16.5712 -16.2252 -15.901 -15.7482 -15.5328 -15.3174 -15.2717 -15.2274 -15.1638 -15.1846 -15.0547 -14.9894 -14.9894 -14.9894 -14.9894 -14.9894 -14.9894 -14.9894 -14.9894 -14.9894 -14.9894 -14.9894 -14.9894 -14.9894 -14.9894 -14.9894 -14.9894 -14.9894 -14.9894 -14.9894 -14.9894 -14.9894 -14.9894 -14.9894 -14.9894 -14.9894 -14.9894 -14.9894 -14.9894 -14.9894 -14.9894 -14.9894 -14.9894 -14.9894 -14.9894 -14.9894 -14.9894 -14.9894 -14.9894 -14.9894 -14.9894 -14.9894 -14.9894 -14.9894 -14.9894 -14.9894 -14.9894 -14.9894 -14.9894 -14.9894 -14.9894 -14.9894 -14.9894 -14.9894 -14.9894 -14.9894 -14.9894 -14.9894 -14.9894 -14.9894 -14.9894 -14.9894 -14.9894 -14.9894 -14.9894 -14.9894 -14.9894 -14.9894 -14.9894 -14.9894 -14.9894 -14.9894 -14.9894 -14.9894 -14.9894 -14.9894 -14.9894 -14.9894 -14.9894 -14.9894 -14.9894 -14.9894 -14.9894 -14.9894 -14.9894 -14.9894 -14.9894 -14.9894 -14.9894 -14.9894 -14.9894 -14.9894 -14.9894 -14.9894 -14.9894 -14.9894 -14.9894 -14.9894 -14.9894 -14.9894 -14.9894 -14.9894 -14.9894 -14.9894 -14.9894 -14.9894 -14.9894 -14.9894 -14.9894 -14.9894 -14.9894 -14.9894 -14.9894 -14.9894 -14.9894 -14.9894 -14.9894 -14.9894 -14.9894 -14.9894 -14.9894 -14.9894 -14.9894 -14.9894 -14.9894 -14.9894 -14.9894 -14.9894 -14.9894 -14.9894 -14.9894 -14.9894 -14.9894 -14.9894 -14.9894 -14.9894 -14.9894 -14.9894 -14.9894 -14.9894 -14.9894 -14.9894 -14.9894 -14.9894 -14.9894 -14.9894 -14.9894 -14.9894 -14.9894 -14.9894 -14.9894 -14.9894 -14.9894 -14.9894 -14.9894 -14.9894 -14.9894 -14.9894 -14.9894 -14.9894 -14.9894 -14.9894 -14.9894 -14.9894 -14.9894 -14.9894 -14.9894 -14.9894 -14.9894 -14.9894 -14.9894 -14.9894 -14.9894 -14.9894 -14.9894 -14.9894 -14.9894 -14.9894 -15.1799 -15.2532 -15.2051 -15.5057 -15.832 -15.8319 -15.7676 -15.7491 -15.7452 -15.5817 -15.8149 -15.594 -15.8034 -15.7665 -15.5591 -15.51 -15.3626 -15.3778 -15.4424 -15.4869 -15.5085 -15.4462 -15.2261 -15.2485 -15.1838 -15.1641 -15.2273 -14.9894 -14.9894 -14.9894 -14.9894 -14.9894 -14.9894 -14.9894 -14.9894 -14.9894 -14.9894 -14.9894 -14.9894 -14.9894 -14.9894 -14.9894 -14.9894 -14.9894 -14.9894 -14.9894 -14.9894 -14.9894 -14.9894 -14.9894 -14.9894 -14.9894 -14.9894 -14.9894 -14.9894 -14.9894 -14.9894 -14.9894 -14.9894 -14.9894 -14.9894 -14.9894 -14.9894 -14.9894 -14.9894 -14.9894 -14.9894 -14.9894 -14.9894 -14.9894 -14.9894 -14.9894 -14.9894 -14.9894 -14.9894 -14.9894 -14.9894 -14.9894 -14.9894 -14.9894 -14.9894 -14.9894 -14.9894 -14.9894 -14.9894 -14.9894 -14.9894 -14.9894 -14.9894 -14.9894 -14.9894 -14.9894 -14.9894
-42.3722 -52.0175 -58.9023 -48.403 -42.0608 -40.6359 -40.4416 -42.5282 -40.6988 -42.2382 -54.1823 -42.666 -34.4056 -30.6538 -29.5303 -28.4113 -30.2138 -25.096 -23.631 -23.1757 -22.5425 -21.894 -21.4364 -21.2236 -20.9871 -20.746 -20.5523 -21.3239 -20.3612 -20.2745 -20.1194 -19.8594 -19.7601 -19.6215 -20.3452 -20.1923 -19.4572 -18.5444 -18.2041 -17.9187 -18.0955 -18.9894 -18.8 -18.2395 -18.4576 -19.1336 -20.6835 -20.3399 -20.1219 -19.4561 -18.6324 -18.1155 -17.7923 -17.2703 -16.8595 -16.5338 -16.1011 -15.8379 -15.6008 -15.4046 -15.2761 -15.2962 -15.231 -15.1431 -15.0598 -14.971 -15.0359 -14.971 -14.971 -14.971 -14.971 -14.971 -14.971 -14.971 -14.971 -14.971 -14.971 -14.971 -14.971 -14.971 -14.971 -14.971 -14.971 -14.971 -14.971 -14.971 -14.971 -14.971 -14.971 -14.971 -14.971 -14.971 -14.971 -14.971 -14.971 -14.971 -14.971 -14.971 -14.971 -14.971 -14.971 -14.971 -14.971 -14.971 -14.971 -14.971 -14.971 -14.971 -14.971 -14.971 -14.971 -14.971 -14.971 -14.971 -14.971 -14.971 -14.971 -14.971 -14.971 -14.971 -14.971 -14.971 -14.971 -14.971 -14.971 -14.971 -14.971 -14.971 -14.971 -14.971 -14.971 -14.971 -14.971 -14.971 -14.971 -14.971 -14.971 -14.971 -14.971 -14.971 -14.971 -14.971 -14.971 -14.971 -14.971 -14.971 -14.971 -14.971 -14.971 -14.971 -14.971 -14.971 -14.971 -14.971 -14.971 -14.971 -14.971 -14.971 -14.971 -14.971 -14.971 -14.971 -14.971 -14.971 -14.971 -14.971 -14.971 -14.971 -14.971 -14.971 -14.971 -14.971 -14.971 -14.971 -14.971 -14.971 -14.971 -14.971 -14.971 -14.971 -14.971 -14.971 -14.971 -14.971 -14.971 -14.971 -14.971 -14.971 -14.971 -14.971 -14.971 -14.971 -14.971 -14.971 -14.971 -14.971 -14.971 -14.971 -14.971 -14.971 -14.971 -14.971 -14.971 -14.971 -14.971 -14.971 -14.971 -14.971 -14.971 -14.971 -14.971 -14.971 -14.971 -14.971 -14.971 -14.971 -14.971 -14.971 -14.971 -14.971 -14.971 -14.971 -14.971 -14.971 -14.971 -14.971 -14.971 -14.971 -14.971 -14.971 -14.971 -14.971 -14.971 -14.971 -14.971 -14.971 -14.971 -14.971 -14.971 -14.971 -14.971 -14.971 -15.1224 -15.2713 -15.2301 -15.3323 -15.4264 -15.5111 -15.5824 -15.6038 -15.599 -15.5803 -15.4453 -15.4273 -15.5919 -15.809 -15.7293 -15.6531 -15.3603 -15.4267 -15.3391 -15.404 -15.4473 -15.4461 -15.4467 -15.3826 -15.2084 -15.1879 -15.1862 -15.1435 -14.971 -14.971 -14.971 -14.971 -14.971 -14.971 -14.971 -14.971 -14.971 -14.971 -14.971 -14.971 -14.971 -14.971 -14.971 -14.971 -14.971 -14.971 -14.971 -14.971 -14.971 -14.971 -14.971 -14.971 -14.971 -14.971 -14.971 -14.971 -14.971 -14.971 -14.971 -14.971 -14.971 -14.971 -14.971 -14.971 -14.971 -14.971 -14.971 -14.971 -14.971 -14.971 -14.971 -14.971 -14.971 -14.971 -14.971 -14.971 -14.971 -14.971 -14.971 -14.971 -14.971 -14.971 -14.971 -14.971 -14.971 -14.971 -14.971 -14.971 -14.971 -14.971 -14.971 -14.971 -14.971 -14.971
-41.8291 -48.9534 -52.587 -53.413 -47.4593 -39.8952 -38.4415 -38.3692 -38.5648 -40.6162 -45.1918 -41.6006 -41.7991 -30.3711 -28.3958 -26.9288 -27.4435 -28.2854 -23.6341 -22.6603 -22.297 -21.8752 -21.7617 -21.546 -21.2737 -21.0682 -20.9967 -20.2587 -20.1085 -20.0192 -19.9557 -19.8887 -19.606 -19.4174 -19.6851 -20.3473 -19.1668 -18.5115 -18.6908 -17.8869 -17.8576 -18.4685 -18.2075 -18.0377 -18.4128 -19.3336 -20.6888 -20.7562 -19.9522 -19.116 -18.7102 -18.1217 -17.5366 -17.143 -16.7989 -16.4105 -16.0843 -15.7813 -15.5638 -15.4111 -15.1961 -14.9566 -15.0648 -15.108 -14.9566 -14.9566 -14.9566 -14.9566 -14.9566 -14.9566 -14.9566 -14.9566 -14.9566 -14.9566 -14.9566 -14.9566 -14.9566 -14.9566 -14.9566 -14.9566 -14.9566 -14.9566 -14.9566 -14.9566 -14.9566 -14.9566 -14.9566 -14.9566 -14.9566 -14.9566 -14.9566 -14.9566 -14.9566 -14.9566 -14.9566 -14.9566 -14.9566 -14.9566 -14.9566 -14.9566 -14.9566 -14.9566 -14.9566 -14.9566 -14.9566 -14.9566 -14.9566 -14.9566 -14.9566 -14.9566 -14.9566 -14.9566 -14.9566 -14.9566 -14.9566 -14.9566 -14.9566 -14.9566 -14.9566 -14.9566 -14.9566 -14.9566 -14.9566 -14.9566 -14.9566 -14.9566 -14.9566 -14.9566 -14.9566 -14.9566 -14.9566 -14.9566 -14.9566 -14.9566 -14.9566 -14.9566 -14.9566 -14.9566 -14.9566 -14.9566 -14.9566 -14.9566 -14.9566 -14.9566 -14.9566 -14.9566 -14.9566 -14.9566 -14.9566 -14.9566 -14.9566 -14.9566 -14.9566 -14.9566 -14.9566 -14.9566 -14.9566 -14.9566 -14.9566 -14.9566 -14.9566 -14.9566 -14.9566 -14.9566 -14.9566 -14.9566 -14.9566 -14.9566 -14.9566 -14.9566 -14.9566 -14.9566 -14.9566 -14.9566 -14.9566 -14.9566 -14.9566 -14.9566 -14.9566 -14.9566 -14.9566 -14.9566 -14.9566 -14.9566 -14.9566 -14.9566 -14.9566 -14.9566 -14.9566 -14.9566 -14.9566 -14.9566 -14.9566 -14.9566 -14.9566 -14.9566 -14.9566 -14.9566 -14.9566 -14.9566 -14.9566 -14.9566 -14.9566 -14.9566 -14.9566 -14.9566 -14.9566 -14.9566 -14.9566 -14.9566 -14.9566 -14.9566 -14.9566 -14.9566 -14.9566 -14.9566 -14.9566 -14.9566 -14.9566 -14.9566 -14.9566 -14.9566 -14.9566 -14.9566 -14.9566 -14.9566 -14.9566 -14.9566 -14.9566 -14.9566 -14.9566 -14.9566 -14.9566 -14.9566 -14.9566 -14.9566 -14.9566 -14.9566 -14.9566 -14.9566 -14.9566 -14.9566 -14.9566 -15.1729 -15.2374 -15.2805 -15.4979 -15.4352 -15.277 -15.5608 -15.5409 -15.4326 -15.3447 -15.5807 -15.6069 -15.5844 -15.7583 -15.5439 -15.1955 -15.3224 -15.3222 -15.26 -15.2819 -15.2605 -15.3892 -15.4116 -15.2167 -15.1946 -15.1728 -15.1739 -14.9782 -14.9566 -14.9566 -14.9566 -14.9566 -14.9566 -14.9566 -14.9566 -14.9566 -14.9566 -14.9566 -14.9566 -14.9566 -14.9566 -14.9566 -14.9566 -14.9566 -14.9566 -14.9566 -14.9566 -14.9566 -14.9566 -14.9566 -14.9566 -14.9566 -14.9566 -14.9566 -14.9566 -14.9566 -14.9566 -14.9566 -14.9566 -14.9566 -14.9566 -14.9566 -14.9566 -14.9566 -14.9566 -14.9566 -14.9566 -14.9566 -14.9566 -14.9566 -14.9566 -14.9566 -14.9566 -14.9566 -14.9566 -14.9566 -14.9566 -14.9566 -14.9566 -14.9566 -14.9566 -14.9566 -14.9566 -14.9566 -14.9566 -14.9566 -14.9566 -14.9566 -14.9566 -14.9566 -14.9566 -14.9566 -14.9566
-40.1129 -47.4193 -48.8972 -48.3263 -45.0185 -38.5215 -37.1725 -36.559 -38.1585 -43.826 -45.6174 -49.6798 -33.9606 -30.4193 -27.3592 -26.1014 -25.4214 -27.0014 -25.5859 -22.7497 -23.4896 -22.9807 -22.8985 -22.3272 -21.6904 -21.7471 -21.7781 -20.4422 -19.9214 -19.5049 -19.7271 -19.5789 -19.5964 -19.0589 -19.071 -19.1275 -19.0147 -18.3669 -17.9068 -17.8123 -17.6468 -17.9163 -17.5955 -18.0562 -18.4828 -19.0159 -20.5225 -20.6546 -19.9072 -19.0557 -18.2824 -18.0197 -17.4818 -17.1322 -16.6141 -16.1173 -15.9428 -15.6817 -15.5517 -15.4001 -15.1859 -15.0546 -14.9442 -14.9442 -14.9442 -14.9442 -14.9442 -14.9442 -14.9442 -14.9442 -14.9442 -14.9442 -14.9442 -14.9442 -14.9442 -14.9442 -14.9442 -14.9442 -14.9442 -14.9442 -14.9442 -14.9442 -14.9442 -14.9442 -14.9442 -14.9442 -14.9442 -14.9442 -14.9442 -14.9442 -14.9442 -14.9442 -14.9442 -14.9442 -14.9442 -14.9442 -14.9442 -14.9442 -14.9442 -14.9442 -14.9442 -14.9442 -14.9442 -14.9442 -14.9442 -14.9442 -14.9442 -14.9442 -14.9442 -14.9442 -14.9442 -14.9442 -14.9442 -14.9442 -14.9442 -14.9442 -14.9442 -14.9442 -14.9442 -14.9442 -14.9442 -14.9442 -14.9442 -14.9442 -14.9442 -14.9442 -14.9442 -14.9442 -14.9442 -14.9442 -14.9442 -14.9442 -14.9442 -14.9442 -14.9442 -14.9442 -14.9442 -14.9442 -14.9442 -14.9442 -14.9442 -14.9442 -14.9442 -14.9442 -14.9442 -14.9442 -14.9442 -14.9442 -14.9442 -14.9442 -14.9442 -14.9442 -14.9442 -14.9442 -14.9442 -14.9442 -14.9442 -14.9442 -14.9442 -14.9442 -14.9442 -14.9442 -14.9442 -14.9442 -14.9442 -14.9442 -14.9442 -14.9442 -14.9442 -14.9442 -14.9442 -14.9442 -14.9442 -14.9442 -14.9442 -14.9442 -14.9442 -14.9442 -14.9442 -14.9442 -14.9442 -14.9442 -14.9442 -14.9442 -14.9442 -14.9442 -14.9442 -14.9442 -14.9442 -14.9442 -14.9442 -14.9442 -14.9442 -14.9442 -14.9442 -14.9442 -14.9442 -14.9442 -14.9442 -14.9442 -14.9442 -14.9442 -14.9442 -14.9442 -14.9442 -14.9442 -14.9442 -14.9442 -14.9442 -14.9442 -14.9442 -14.9442 -14.9442 -14.9442 -14.9442 -14.9442 -14.9442 -14.9442 -14.9442 -14.9442 -14.9442 -14.9442 -14.9442 -14.9442 -14.9442 -14.9442 -14.9442 -14.9442 -14.9442 -14.9442 -14.9442 -14.9442 -14.9442 -14.9442 -14.9442 -14.9442 -14.9442 -14.9442 -14.9442 -14.9442 -14.9442 -14.9442 -14.9442 -14.9442 -15.1822 -15.2256 -15.3137 -15.2019 -15.3997 -15.4432 -15.3773 -15.4425 -15.5059 -15.5481 -15.5486 -15.593 -15.659 -15.6004 -15.2098 -15.2242 -15.269 -15.2485 -15.2258 -15.2248 -15.2241 -15.3569 -15.3813 -15.1832 -15.203 -15.1828 -15.1166 -14.9442 -14.9442 -14.9442 -14.9442 -14.9442 -14.9442 -14.9442 -14.9442 -14.9442 -14.9442 -14.9442 -14.9442 -14.9442 -14.9442 -14.9442 -14.9442 -14.9442 -14.9442 -14.9442 -14.9442 -14.9442 -14.9442 -14.9442 -14.9442 -14.9442 -14.9442 -14.9442 -14.9442 -14.9442 -14.9442 -14.9442 -14.9442 -14.9442 -14.9442 -14.9442 -14.9442 -14.9442 -14.9442 -14.9442 -14.9442 -14.9442 -14.9442 -14.9442 -14.9442 -14.9442 -14.9442 -14.9442 -14.9442 -14.9442 -14.9442 -14.9442 -14.9442 -14.9442 -14.9442 -14.9442 -14.9442 -14.9442 -14.9442 -14.9442 -14.9442 -14.9442 -14.9442 -14.9442 -14.9442 -14.9442
-45.5637 -43.2104 -51.518 -49.8394 -44.8444 -38.8781 -36.4317 -35.3376 -37.6927 -56.7603 -45.5681 -42.4486 -35.2738 -28.7626 -26.9157 -25.4809 -24.6725 -24.1763 -23.5951 -23.3789 -23.7471 -27.7118 -25.5677 -23.4983 -22.3394 -21.8881 -20.9685 -20.4581 -20.0497 -19.9239 -19.7204 -19.3384 -19.0444 -19.1141 -18.8507 -18.5702 -18.5451 -18.7131 -17.6911 -18.2551 -17.491 -17.5758 -18.1246 -18.5803 -18.1443 -18.8139 -19.1772 -20.336 -19.5283 -18.8266 -18.2281 -18.0053 -17.441 -17.1008 -16.5606 -16.0197 -15.6941 -15.6264 -15.4737 -15.3428 -15.1925 -15.1702 -15.0622 -14.9757 -14.9324 -14.9324 -14.9324 -14.9324 -14.9324 -14.9324 -14.9324 -14.9324 -14.9324 -14.9324 -14.9324 -14.9324 -14.9324 -14.9324 -14.9324 -14.9324 -14.9324 -14.9324 -14.9324 -14.9324 -14.9324 -14.9324 -14.9324 -14.9324 -14.9324 -14.9324 -14.9324 -14.9324 -14.9324 -14.9324 -14.9324 -14.9324 -14.9324 -14.9324 -14.9324 -14.9324 -14.9324 -14.9324 -14.9324 -14.9324 -14.9324 -14.9324 -14.9324 -14.9324 -14.9324 -14.9324 -14.9324 -14.9324 -14.9324 -14.9324 -14.9324 -14.9324 -14.9324 -14.9324 -14.9324 -14.9324 -14.9324 -14.9324 -14.9324 -14.9324 -14.9324 -14.9324 -14.9324 -14.9324 -14.9324 -14.9324 -14.9324 -14.9324 -14.9324 -14.9324 -14.9324 -14.9324 -14.9324 -14.9324 -14.9324 -14.9324 -14.9324 -14.9324 -14.9324 -14.9324 -14.9324 -14.9324 -14.9324 -14.9324 -14.9324 -14.9324 -14.9324 -14.9324 -14.9324 -14.9324 -14.9324 -14.9324 -14.9324 -14.9324 -14.9324 -14.9324 -14.9324 -14.9324 -14.9324 -14.9324 -14.9324 -14.9324 -14.9324 -14.9324 -14.9324 -14.9324 -14.9324 -14.9324 -14.9324 -14.9324 -14.9324 -14.9324 -14.9324 -14.9324 -14.9324 -14.9324 -14.9324 -14.9324 -14.9324 -14.9324 -14.9324 -14.9324 -14.9324 -14.9324 -14.9324 -14.9324 -14.9324 -14.9324 -14.9324 -14.9324 -14.9324 -14.9324 -14.9324 -14.9324 -14.9324 -14.9324 -14.9324 -14.9324 -14.9324 -14.9324 -14.9324 -14.9324 -14.9324 -14.9324 -14.9324 -14.9324 -14.9324 -14.9324 -14.9324 -14.9324 -14.9324 -14.9324 -14.9324 -14.9324 -14.9324 -14.9324 -14.9324 -14.9324 -14.9324 -14.9324 -14.9324 -14.9324 -14.9324 -14.9324 -14.9324 -14.9324 -14.9324 -14.9324 -14.9324 -14.9324 -14.9324 -14.9324 -14.9324 -14.9324 -14.9324 -14.9324 -14.9324 -14.9324 -14.9324 -14.9324 -15.0619 -15.1269 -15.1466 -15.1689 -15.2157 -15.2788 -15.2758 -15.1717 -15.408 -15.4507 -15.5174 -15.5389 -15.5389 -15.818 -15.6103 -15.1909 -15.1698 -15.213 -15.172 -15.1717 -14.9112 -15.193 -15.3019 -15.1928 -15.1698 -15.193 -15.104 -14.9324 -14.9324 -14.9324 -14.9324 -14.9324 -14.9324 -14.9324 -14.9324 -14.9324 -14.9324 -14.9324 -14.9324 -14.9324 -14.9324 -14.9324 -14.9324 -14.9324 -14.9324 -14.9324 -14.9324 -14.9324 -14.9324 -14.9324 -14.9324 -14.9324 -14.9324 -14.9324 -14.9324 -14.9324 -14.9324 -14.9324 -14.9324 -14.9324 -14.9324 -14.9324 -14.9324 -14.9324 -14.9324 -14.9324 -14.9324 -14.9324 -14.9324 -14.9324 -14.9324 -14.9324 -14.9324 -14.9324 -14.9324 -14.9324 -14.9324 -14.9324 -14.9324 -14.9324 -14.9324 -14.9324 -14.9324 -14.9324 -14.9324 -14.9324 -14.9324 -14.9324 -14.9324 -14.9324 -14.9324 -14.9324
-42.2514 -55.4874 -60.7749 -60.2237 -47.6258 -40.3374 -36.2869 -34.4043 -34.5492 -49.9454 -55.1049 -39.8329 -36.4885 -27.6431 -26.033 -25.3614 -24.5888 -24.1926 -24.0452 -23.6747 -25.8964 -26.1122 -35.5634 -24.8126 -23.3623 -22.0631 -21.1817 -20.8014 -20.7263 -20.3741 -20.3356 -19.409 -19.3321 -18.7818 -18.6051 -19.1436 -18.0637 -17.8901 -17.644 -17.3848 -17.5949 -17.7873 -18.2119 -18.34 -17.8049 -18.0931 -19.2755 -20.0187 -19.5373 -18.7219 -18.1503 -17.7867 -17.3944 -17.3751 -16.5538 -16.012 -15.7036 -15.5979 -15.4242 -15.3603 -15.273 -15.2073 -15.055 -15.0536 -15.0105 -14.924 -14.924 -14.924 -14.924 -14.924 -14.924 -14.924 -14.924 -14.924 -14.924 -14.924 -14.924 -14.924 -14.924 -14.924 -14.924 -14.924 -14.924 -14.924 -14.924 -14.924 -14.924 -14.924 -14.924 -14.924 -14.924 -14.924 -14.924 -14.924 -14.924 -14.924 -14.924 -14.924 -14.924 -14.924 -14.924 -14.924 -14.924 -14.924 -14.924 -14.924 -14.924 -14.924 -14.924 -14.924 -14.924 -14.924 -14.924 -14.924 -14.924 -14.924 -14.924 -14.924 -14.924 -14.924 -14.924 -14.924 -14.924 -14.924 -14.924 -14.924 -14.924 -14.924 -14.924 -14.924 -14.924 -14.924 -14.924 -14.924 -14.924 -14.924 -14.924 -14.924 -14.924 -14.924 -14.924 -14.924 -14.924 -14.924 -14.924 -14.924 -14.924 -14.924 -14.924 -14.924 -14.924 -14.924 -14.924 -14.924 -14.924 -14.924 -14.924 -14.924 -14.924 -14.924 -14.924 -14.924 -14.924 -14.924 -14.924 -14.924 -14.924 -14.924 -14.924 -14.924 -14.924 -14.924 -14.924 -14.924 -14.924 -14.924 -14.924 -14.924 -14.924 -14.924 -14.924 -14.924 -14.924 -14.924 -14.924 -14.924 -14.924 -14.924 -14.924 -14.924 -14.924 -14.924 -14.924 -14.924 -14.924 -14.924 -14.924 -14.924 -14.924 -14.924 -14.924 -14.924 -14.924 -14.924 -14.924 -14.924 -14.924 -14.924 -14.924 -14.924 -14.924 -14.924 -14.924 -14.924 -14.924 -14.924 -14.924 -14.924 -14.924 -14.924 -14.924 -14.924 -14.924 -14.924 -14.924 -14.924 -14.924 -14.924 -14.924 -14.924 -14.924 -14.924 -14.924 -14.924 -14.924 -14.924 -14.924 -14.924 -14.924 -14.924 -14.924 -14.924 -14.924 -14.924 -14.924 -15.0525 -15.1398 -15.1834 -15.184 -15.1847 -15.0981 -15.2511 -15.2926 -15.3355 -15.4224 -15.4635 -15.4657 -15.8058 -15.6563 -15.1639 -15.1824 -15.2057 -15.1419 -14.9571 -14.859 -14.8804 -15.1829 -15.2047 -15.1402 -15.163 -15.0993 -15.1186 -14.924 -14.924 -14.924 -14.924 -14.924 -14.924 -14.924 -14.924 -14.924 -14.924 -14.924 -14.924 -14.924 -14.924 -14.924 -14.924 -14.924 -14.924 -14.924 -14.924 -14.924 -14.924 -14.924 -14.924 -14.924 -14.924 -14.924 -14.924 -14.924 -14.924 -14.924 -14.924 -14.924 -14.924 -14.924 -14.924 -14.924 -14.924 -14.924 -14.924 -14.924 -14.924 -14.924 -14.924 -14.924 -14.924 -14.924 -14.924 -14.924 -14.924 -14.924 -14.924 -14.924 -14.924 -14.924 -14.924 -14.924 -14.924 -14.924 -14.924 -14.924 -14.924 -14.924 -14.924
-41.6823 -41.0463 -43.7906 -45.7572 -70.7601 -65.3083 -47.1923 -38.4595 -32.7416 -45.9302 -45.6547 -36.5417 -29.0264 -29.6363 -26.1418 -25.8071 -26.1914 -25.5836 -24.9609 -24.7519 -26.329 -36.6967 -28.132 -33.6982 -24.9944 -31.8211 -21.8897 -21.4488 -22.7892 -21.2391 -20.4612 -19.7087 -18.9717 -18.5648 -18.5095 -19.0279 -18.4506 -17.7686 -17.7904 -17.5912 -17.1548 -18.0121 -17.6838 -18.1299 -17.5694 -18.1306 -18.6199 -18.9758 -19.3406 -18.4957 -18.0167 -17.6688 -17.1947 -16.741 -16.5218 -16.1284 -15.8263 -15.5273 -15.3732 -15.2217 -15.2242 -15.1553 -15.0894 -15.0279 -14.9174 -14.9174 -14.9174 -14.9174 -14.9174 -14.9174 -14.9174 -14.9174 -14.9174 -14.9174 -14.9174 -14.9174 -14.9174 -14.9174 -14.9174 -14.9174 -14.9174 -14.9174 -14.9174 -14.9174 -14.9174 -14.9174 -14.9174 -14.9174 -14.9174 -14.9174 -14.9174 -14.9174 -14.9174 -14.9174 -14.9174 -14.9174 -14.9174 -14.9174 -14.9174 -14.9174 -14.9174 -14.9174 -14.9174 -14.9174 -14.9174 -14.9174 -14.9174 -14.9174 -14.9174 -14.9174 -14.9174 -14.9174 -14.9174 -14.9174 -14.9174 -14.9174 -14.9174 -14.9174 -14.9174 -14.9174 -14.9174 -14.9174 -14.9174 -14.9174 -14.9174 -14.9174 -14.9174 -14.9174 -14.9174 -14.9174 -14.9174 -14.9174 -14.9174 -14.9174 -14.9174 -14.9174 -14.9174 -14.9174 -14.9174 -14.9174 -14.9174 -14.9174 -14.9174 -14.9174 -14.9174 -14.9174 -14.9174 -14.9174 -14.9174 -14.9174 -14.9174 -14.9174 -14.9174 -14.9174 -14.9174 -14.9174 -14.9174 -14.9174 -14.9174 -14.9174 -14.9174 -14.9174 -14.9174 -14.9174 -14.9174 -14.9174 -14.9174 -14.9174 -14.9174 -14.9174 -14.9174 -14.9174 -14.9174 -14.9174 -14.9174 -14.9174 -14.9174 -14.9174 -14.9174 -14.9174 -14.9174 -14.9174 -14.9174 -14.9174 -14.9174 -14.9174 -14.9174 -14.9174 -14.9174 -14.9174 -14.9174 -14.9174 -14.9174 -14.9174 -14.9174 -14.9174 -14.9174 -14.9174 -14.9174 -14.9174 -14.9174 -14.9174 -14.9174 -14.9174 -14.9174 -14.9174 -14.9174 -14.9174 -14.9174 -14.9174 -14.9174 -14.9174 -14.9174 -14.9174 -14.9174 -14.9174 -14.9174 -14.9174 -14.9174 -14.9174 -14.9174 -14.9174 -14.9174 -14.9174 -14.9174 -14.9174 -14.9174 -14.9174 -14.9174 -14.9174 -14.9174 -14.9174 -14.9174 -14.9174 -14.9174 -14.9174 -14.9174 -14.9174 -14.9174 -14.9174 -14.9174 -14.9174 -14.9174 -14.9174 -14.9174 -15.0484 -15.0264 -15.0695 -15.1766 -15.1348 -15.0892 -15.1795 -15.1997 -15.2198 -15.3071 -15.437 -15.4795 -15.6071 -15.3094 -15.1775 -15.1778 -15.1149 -14.9236 -14.8752 -14.8535 -14.853 -15.0643 -15.1755 -15.2193 -15.1333 -15.1132 -15.0685 -15.1553 -14.9174 -14.9174 -14.9174 -14.9174 -14.9174 -14.9174 -14.9174 -14.9174 -14.9174 -14.9174 -14.9174 -14.9174 -14.9174 -14.9174 -14.9174 -14.9174 -14.9174 -14.9174 -14.9174 -14.9174 -14.9174 -14.9174 -14.9174 -14.9174 -14.9174 -14.9174 -14.9174 -14.9174 -14.9174 -14.9174 -14.9174 -14.9174 -14.9174 -14.9174 -14.9174 -14.9174 -14.9174 -14.9174 -14.9174 -14.9174 -14.9174 -14.9174 -14.9174 -14.9174 -14.9174 -14.9174 -14.9174 -14.9174 -14.9174 -14.9174 -14.9174 -14.9174 -14.9174 -14.9174 -14.9174 -14.9174 -14.9174 -14.9174 -14.9174 -14.9174 -14.9174 -14.9174 -14.9174
-40.9163 -39.4888 -39.944 -41.1982 -40.6943 -41.1995 -39.5474 -34.4458 -31.3204 -30.5606 -29.9418 -29.6711 -41.0348 -28.5821 -32.6679 -27.1524 -26.92 -26.4533 -26.4606 -25.7649 -25.5614 -27.4744 -30.002 -39.1476 -29.3585 -32.7802 -22.8507 -21.8928 -26.2333 -25.6858 -21.488 -20.5866 -19.1954 -18.8001 -18.3331 -18.337 -18.5977 -17.9057 -17.7558 -17.5598 -17.8126 -17.0183 -17.6925 -17.6924 -17.2256 -17.6714 -18.0884 -18.8161 -19.6134 -18.7013 -18.1592 -17.5128 -17.0818 -16.6027 -16.6821 -16.1484 -15.8481 -15.5206 -15.2822 -15.2401 -15.1287 -15.1284 -15.0431 -14.9123 -14.9123 -14.9123 -14.9123 -14.9123 -14.9123 -14.9123 -14.9123 -14.9123 -14.9123 -14.9123 -14.9123 -14.9123 -14.9123 -14.9123 -14.9123 -14.9123 -14.9123 -14.9123 -14.9123 -14.9123 -14.9123 -14.9123 -14.9123 -14.9123 -14.9123 -14.9123 -14.9123 -14.9123 -14.9123 -14.9123 -14.9123 -14.9123 -14.9123 -14.9123 -14.9123 -14.9123 -14.9123 -14.9123 -14.9123 -14.9123 -14.9123 -14.9123 -14.9123 -14.9123 -14.9123 -14.9123 -14.9123 -14.9123 -14.9123 -14.9123 -14.9123 -14.9123 -14.9123 -14.9123 -14.9123 -14.9123 -14.9123 -14.9123 -14.9123 -14.9123 -14.9123 -14.9123 -14.9123 -14.9123 -14.9123 -14.9123 -14.9123 -14.9123 -14.9123 -14.9123 -14.9123 -14.9123 -14.9123 -14.9123 -14.9123 -14.9123 -14.9123 -14.9123 -14.9123 -14.9123 -14.9123 -14.9123 -14.9123 -14.9123 -14.9123 -14.9123 -14.9123 -14.9123 -14.9123 -14.9123 -14.9123 -14.9123 -14.9123 -14.9123 -14.9123 -14.9123 -14.9123 -14.9123 -14.9123 -14.9123 -14.9123 -14.9123 -14.9123 -14.9123 -14.9123 -14.9123 -14.9123 -14.9123 -14.9123 -14.9123 -14.9123 -14.9123 -14.9123 -14.9123 -14.9123 -14.9123 -14.9123 -14.9123 -14.9123 -14.9123 -14.9123 -14.9123 -14.9123 -14.9123 -14.9123 -14.9123 -14.9123 -14.9123 -14.9123 -14.9123 -14.9123 -14.9123 -14.9123 -14.9123 -14.9123 -14.9123 -14.9123 -14.9123 -14.9123 -14.9123 -14.9123 -14.9123 -14.9123 -14.9123 -14.9123 -14.9123 -14.9123 -14.9123 -14.9123 -14.9123 -14.9123 -14.9123 -14.9123 -14.9123 -14.9123 -14.9123 -14.9123 -14.9123 -14.9123 -14.9123 -14.9123 -14.9123 -14.9123 -14.9123 -14.9123 -14.9123 -14.9123 -14.9123 -14.9123 -14.9123 -14.9123 -14.9123 -14.9123 -14.9123 -14.9123 -14.9123 -14.9123 -14.9123 -14.9123 -14.9123 -14.9123 -14.8907 -15.0211 -14.8925 -14.9817 -14.9123 -14.9274 -15.0611 -15.192 -15.2169 -15.3249 -15.4092 -15.26 -15.3012 -15.2393 -15.1316 -15.1145 -14.8907 -14.8701 -14.8479 -14.8258 -14.8258 -14.8463 -15.1715 -15.1278 -15.1292 -15.107 -15.1488 -14.9139 -14.9123 -14.9123 -14.9123 -14.9123 -14.9123 -14.9123 -14.9123 -14.9123 -14.9123 -14.9123 -14.9123 -14.9123 -14.9123 -14.9123 -14.9123 -14.9123 -14.9123 -14.9123 -14.9123 -14.9123 -14.9123 -14.9123 -14.9123 -14.9123 -14.9123 -14.9123 -14.9123 -14.9123 -14.9123 -14.9123 -14.9123 -14.9123 -14.9123 -14.9123 -14.9123 -14.9123 -14.9123 -14.9123 -14.9123 -14.9123 -14.9123 -14.9123 -14.9123 -14.9123 -14.9123 -14.9123 -14.9123 -14.9123 -14.9123 -14.9123 -14.9123 -14.9123 -14.9123 -14.9123 -14.9123 -14.9123 -14.9123 -14.9123 -14.9123 -14.9123 -14.9123 -14.9123 -14.9123
-42.3474 -39.3499 -39.4795 -46.2528 -44.2199 -38.7677 -32.9426 -31.5421 -34.0798 -30.3746 -29.9193 -30.1877 -32.8436 -36.4245 -31.6415 -28.8383 -28.691 -29.9401 -36.1184 -29.1045 -27.4645 -27.4964 -28.6843 -28.9121 -37.5873 -26.3139 -23.3876 -22.6079 -23.6898 -45.2483 -23.0198 -25.4613 -20.0073 -19.4984 -18.362 -17.9807 -17.7882 -17.7422 -17.4831 -17.9002 -17.8441 -17.6675 -17.1416 -16.9569 -18.0182 -17.9569 -18.1811 -18.7743 -18.9935 -18.8957 -18.0534 -17.4857 -16.8629 -16.4691 -16.6049 -16.1756 -15.6926 -15.39 -15.257 -15.1052 -15.0829 -15.1057 -15.1456 -14.9098 -14.9098 -14.9098 -14.9098 -14.9098 -14.9098 -14.9098 -14.9098 -14.9098 -14.9098 -14.9098 -14.9098 -14.9098 -14.9098 -14.9098 -14.9098 -14.9098 -14.9098 -14.9098 -14.9098 -14.9098 -14.9098 -14.9098 -14.9098 -14.9098 -14.9098 -14.9098 -14.9098 -14.9098 -14.9098 -14.9098 -14.9098 -14.9098 -14.9098 -14.9098 -14.9098 -14.9098 -14.9098 -14.9098 -14.9098 -14.9098 -14.9098 -14.9098 -14.9098 -14.9098 -14.9098 -14.9098 -14.9098 -14.9098 -14.9098 -14.9098 -14.9098 -14.9098 -14.9098 -14.9098 -14.9098 -14.9098 -14.9098 -14.9098 -14.9098 -14.9098 -14.9098 -14.9098 -14.9098 -14.9098 -14.9098 -14.9098 -14.9098 -14.9098 -14.9098 -14.9098 -14.9098 -14.9098 -14.9098 -14.9098 -14.9098 -14.9098 -14.9098 -14.9098 -14.9098 -14.9098 -14.9098 -14.9098 -14.9098 -14.9098 -14.9098 -14.9098 -14.9098 -14.9098 -14.9098 -14.9098 -14.9098 -14.9098 -14.9098 -14.9098 -14.9098 -14.9098 -14.9098 -14.9098 -14.9098 -14.9098 -14.9098 -14.9098 -14.9098 -14.9098 -14.9098 -14.9098 -14.9098 -14.9098 -14.9098 -14.9098 -14.9098 -14.9098 -14.9098 -14.9098 -14.9098 -14.9098 -14.9098 -14.9098 -14.9098 -14.9098 -14.9098 -14.9098 -14.9098 -14.9098 -14.9098 -14.9098 -14.9098 -14.9098 -14.9098 -14.9098 -14.9098 -14.9098 -14.9098 -14.9098 -14.9098 -14.9098 -14.9098 -14.9098 -14.9098 -14.9098 -14.9098 -14.9098 -14.9098 -14.9098 -14.9098 -14.9098 -14.9098 -14.9098 -14.9098 -14.9098 -14.9098 -14.9098 -14.9098 -14.9098 -14.9098 -14.9098 -14.9098 -14.9098 -14.9098 -14.9098 -14.9098 -14.9098 -14.9098 -14.9098 -14.9098 -14.9098 -14.9098 -14.9098 -14.9098 -14.9098 -14.9098 -14.9098 -14.9098 -14.9098 -14.9098 -14.9098 -14.9098 -14.9098 -14.9098 -14.9098 -14.9098 -14.9098 -14.9963 -14.9764 -14.9098 -14.9098 -15.0819 -15.1262 -15.1689 -15.2122 -15.2576 -15.3207 -15.3208 -15.2351 -15.2353 -15.1285 -15.1077 -14.9106 -14.9097 -14.8449 -14.8233 -14.8233 -14.843 -15.0611 -15.1911 -15.1478 -15.1476 -15.1281 -15.104 -14.9098 -14.9098 -14.9098 -14.9098 -14.9098 -14.9098 -14.9098 -14.9098 -14.9098 -14.9098 -14.9098 -14.9098 -14.9098 -14.9098 -14.9098 -14.9098 -14.9098 -14.9098 -14.9098 -14.9098 -14.9098 -14.9098 -14.9098 -14.9098 -14.9098 -14.9098 -14.9098 -14.9098 -14.8666 -15.018 -14.8666 -14.9098 -14.9098 -14.9098 -14.9098 -14.9098 -14.9098 -14.9098 -14.9098 -14.9098 -14.9098 -14.9098 -14.9098 -14.9098 -14.9098 -14.9098 -14.9098 -14.9098 -14.9098 -14.9098 -14.9098 -14.9098 -14.9098 -14.9098 -14.9098 -14.9098 -14.9098 -14.9098 -14.9098 -14.9098 -14.9098 -14.9098 -14.9098
-45.7059 -45.3652 -47.345 -55.4212 -55.6086 -46.8046 -43.365 -35.1318 -36.7081 -35.7803 -30.1934 -31.5724 -49.2494 -36.0158 -34.5523 -33.5882 -35.5766 -33.679 -41.4168 -51.505 -31.5883 -28.8666 -30.6617 -31.1408 -28.3147 -28.4991 -29.2985 -23.3219 -23.7879 -28.4004 -26.3533 -22.0261 -21.3318 -21.5227 -19.0821 -18.6515 -18.209 -17.9138 -17.4867 -17.3333 -17.5326 -17.0651 -17.326 -16.9347 -17.6402 -17.4111 -17.6677 -18.2956 -18.4964 -18.6987 -17.9651 -17.6224 -16.8249 -16.4043 -16.1902 -15.7798 -15.4764 -15.3218 -15.234 -15.1703 -15.1693 -15.1465 -15.1437 -15.1038 -14.9092 -14.9092 -14.9092 -14.9092 -14.9092 -14.9092 -14.9092 -14.9092 -14.9092 -14.9092 -14.9092 -14.9092 -14.9092 -14.9092 -14.9092 -14.9092 -14.9092 -14.9092 -14.9092 -14.9092 -14.9092 -14.9092 -14.9092 -14.9092 -14.9092 -14.9092 -14.9092 -14.9092 -14.9092 -14.9092 -14.9092 -14.9092 -14.9092 -14.9092 -14.9092 -14.9092 -14.9092 -14.9092 -14.9092 -14.9092 -14.9092 -14.9092 -14.9092 -14.9092 -14.9092 -14.9092 -14.9092 -14.9092 -14.9092 -14.9092 -14.9092 -14.9092 -14.9092 -14.9092 -14.9092 -14.9092 -14.9092 -14.9092 -14.9092 -14.9092 -14.9092 -14.9092 -14.9092 -14.9092 -14.9092 -14.9092 -14.9092 -14.9092 -14.9092 -14.9092 -14.9092 -14.9092 -14.9092 -14.9092 -14.9092 -14.9092 -14.9092 -14.9092 -14.9092 -14.9092 -14.9092 -14.9092 -14.9092 -14.9092 -14.9092 -14.9092 -14.9092 -14.9092 -14.9092 -14.9092 -14.9092 -14.9092 -14.9092 -14.9092 -14.9092 -14.9092 -14.9092 -14.9092 -14.9092 -14.9092 -14.9092 -14.9092 -14.9092 -14.9092 -14.9092 -14.9092 -14.9092 -14.9092 -14.9092 -14.9092 -14.9092 -14.9092 -14.9092 -14.9092 -14.9092 -14.9092 -14.9092 -14.9092 -14.9092 -14.9092 -14.9092 -14.9092 -14.9092 -14.9092 -14.9092 -14.9092 -14.9092 -14.9092 -14.9092 -14.9092 -14.9092 -14.9092 -14.9092 -14.9092 -14.9092 -14.9092 -14.9092 -14.9092 -14.9092 -14.9092 -14.9092 -14.9092 -14.9092 -14.9092 -14.9092 -14.9092 -14.9092 -14.9092 -14.9092 -14.9092 -14.9092 -14.9092 -14.9092 -14.9092 -14.9092 -14.9092 -14.9092 -14.9092 -14.9092 -14.9092 -14.9092 -14.9092 -14.9092 -14.9092 -14.9092 -14.9092 -14.9092 -14.9092 -14.9092 -14.9092 -14.9092 -14.9092 -14.9092 -14.9092 -14.9092 -14.9092 -14.9092 -14.9092 -14.9092 -14.9092 -14.9092 -14.9092 -14.9092 -14.9092 -14.9092 -14.9092 -15.1253 -15.1255 -15.1458 -15.1477 -15.1489 -15.2121 -15.1943 -15.1515 -15.1266 -15.0608 -15.0819 -15.0393 -14.9128 -14.8664 -14.845 -14.8435 -15.039 -15.0173 -15.0395 -15.1477 -15.1896 -15.1469 -15.1239 -14.9092 -14.9092 -14.9092 -14.9092 -14.9092 -14.9092 -14.9092 -14.9092 -14.9092 -14.9092 -14.9092 -14.9092 -14.9092 -14.9092 -14.9092 -14.9092 -14.9092 -14.9092 -14.9092 -14.9092 -14.9092 -14.9092 -14.9092 -14.9092 -14.9092 -14.9092 -14.9092 -14.9092 -14.9092 -14.9092 -14.9092 -14.8876 -14.9092 -14.9092 -14.9092 -14.9092 -14.9092 -14.9092 -14.9092 -14.9092 -14.9092 -14.9092 -14.9092 -14.9092 -14.9092 -14.9092 -14.9092 -14.9092 -14.9092 -14.9092 -14.9092 -14.9092 -14.9092 -14.9092 -14.9092 -14.9092 -14.9092 -14.9092 -14.9092 -14.9092 -14.9092 -14.9092 -14.9092
-51.6568 -46.2092 -37.689 -36.2323 -36.1238 -48.8935 -50.4844 -42.7291 -33.9461 -49.2286 -31.6699 -32.2208 -55.2481 -45.0085 -41.4866 -35.4989 -33.08 -33.0294 -36.7868 -42.5704 -54.4442 -32.0171 -35.2553 -28.7278 -26.4996 -26.4427 -28.8346 -26.109 -24.4038 -29.1238 -27.5495 -22.5122 -21.5289 -24.5803 -20.1075 -19.1748 -19.3806 -17.9822 -17.8093 -17.7918 -17.6439 -17.8384 -17.4732 -16.6648 -17.147 -17.4112 -17.6255 -17.5876 -17.5975 -18.553 -18.0957 -17.2331 -16.9202 -16.4275 -16.1057 -15.7579 -15.5616 -15.3438 -15.2143 -15.2358 -15.1492 -15.1271 -15.2129 -15.2353 -14.9108 -14.9108 -14.9108 -14.9108 -14.9108 -14.9108 -14.9108 -14.9108 -14.9108 -14.9108 -14.9108 -14.9108 -14.9108 -14.9108 -14.9108 -14.9108 -14.9108 -14.9108 -14.9108 -14.9108 -14.9108 -14.9108 -14.9108 -14.9108 -14.9108 -14.9108 -14.9108 -14.9108 -14.9108 -14.9108 -14.9108 -14.9108 -14.9108 -14.9108 -14.9108 -14.9108 -14.9108 -14.9108 -14.9108 -14.9108 -14.9108 -14.9108 -14.9108 -14.9108 -14.9108 -14.9108 -14.9108 -14.9108 -14.9108 -14.9108 -14.9108 -14.9108 -14.9108 -14.9108 -14.9108 -14.9108 -14.9108 -14.9108 -14.9108 -14.9108 -14.9108 -14.9108 -14.9108 -14.9108 -14.9108 -14.9108 -14.9108 -14.9108 -14.9108 -14.9108 -14.9108 -14.9108 -14.9108 -14.9108 -14.9108 -14.9108 -14.9108 -14.9108 -14.9108 -14.9108 -14.9108 -14.9108 -14.9108 -14.9108 -14.9108 -14.9108 -14.9108 -14.9108 -14.9108 -14.9108 -14.9108 -14.9108 -14.9108 -14.9108 -14.9108 -14.9108 -14.9108 -14.9108 -14.9108 -14.9108 -14.9108 -14.9108 -14.9108 -14.9108 -14.9108 -14.9108 -14.9108 -14.9108 -14.9108 -14.9108 -14.9108 -14.9108 -14.9108 -14.9108 -14.9108 -14.9108 -14.9108 -14.9108 -14.9108 -14.9108 -14.9108 -14.9108 -14.9108 -14.9108 -14.9108 -14.9108 -14.9108 -14.9108 -14.9108 -14.9108 -14.9108 -14.9108 -14.9108 -14.9108 -14.9108 -14.9108 -14.9108 -14.9108 -14.9108 -14.9108 -14.9108 -14.9108 -14.9108 -14.9108 -14.9108 -14.9108 -14.9108 -14.9108 -14.9108 -14.9108 -14.9108 -14.9108 -14.9108 -14.9108 -14.9108 -14.9108 -14.9108 -14.9108 -14.9108 -14.9108 -14.9108 -14.9108 -14.9108 -14.9108 -14.9108 -14.9108 -14.9108 -14.9108 -14.9108 -14.9108 -14.9108 -14.9108 -14.9108 -14.9108 -14.9108 -14.9108 -14.9108 -14.9108 -14.9108 -14.9108 -14.9108 -14.9108 -14.9108 -14.9108 -14.9108 -14.9756 -15.0839 -15.1059 -15.0838 -15.0605 -15.0841 -15.1269 -15.1022 -15.1707 -15.1264 -15.1485 -15.1483 -15.0623 -15.0837 -15.0177 -14.91 -14.9937 -15.0189 -15.0184 -15.0189 -15.041 -15.1711 -15.1476 -15.1506 -14.9108 -14.9108 -14.9108 -14.9108 -14.9108 -14.9108 -14.9108 -14.9108 -14.9108 -14.9108 -14.9108 -14.9108 -14.9108 -14.9108 -14.9108 -14.9108 -14.9108 -14.9108 -14.9324 -14.9108 -14.9108 -14.9108 -14.9108 -14.9108 -14.9108 -14.8675 -14.9108 -14.9108 -14.9108 -14.9108 -14.9108 -14.9108 -13.8078 -14.9108 -14.9108 -14.9108 -14.9108 -14.9108 -14.9108 -14.9108 -14.9108 -14.9108 -14.9108 -14.9108 -14.9108 -14.9108 -14.9108 -14.9108 -14.9108 -14.9108 -14.9108 -14.9108 -14.9108 -14.9108 -14.9108 -14.9108 -14.9108 -14.9108 -14.9108 -14.9108 -14.9108 -14.9108 -14.9108
-47.235 -42.7112 -35.2797 -33.2504 -32.3498 -32.1076 -32.106 -32.3362 -37.3959 -33.8867 -43.9368 -34.4282 -35.8569 -55.3085 -45.0776 -43.06 -36.0517 -33.8196 -35.5187 -40.8825 -36.8717 -44.0284 -31.9081 -29.7542 -28.9504 -27.537 -33.8175 -26.1967 -25.5193 -33.7363 -30.5421 -22.7726 -21.3256 -21.3568 -20.4096 -19.8787 -18.5548 -18.3648 -18.6859 -18.3077 -18.2614 -17.977 -17.0776 -16.6711 -17.2348 -18.2635 -17.2152 -17.1821 -17.4533 -18.2803 -18.2537 -17.5689 -17.2377 -16.6052 -16.0433 -15.5879 -15.4807 -15.3693 -15.3022 -15.2188 -15.2389 -15.1729 -15.1752 -15.1529 -15.0872 -14.9142 -14.9142 -14.9142 -14.9142 -14.9142 -14.9142 -14.9142 -14.9142 -14.9142 -14.9142 -14.9142 -14.9142 -14.9142 -14.9142 -14.9142 -14.9142 -14.9142 -14.9142 -14.9142 -14.9142 -14.9142 -14.9142 -14.9142 -14.9142 -14.9142 -14.9142 -14.9142 -14.9142 -14.9142 -14.9142 -14.9142 -14.9142 -14.9142 -14.9142 -14.9142 -14.9142 -14.9142 -14.9142 -14.9142 -14.9142 -14.9142 -14.9142 -14.9142 -14.9142 -14.9142 -14.9142 -14.9142 -14.9142 -14.9142 -14.9142 -14.9142 -14.9142 -14.9142 -14.9142 -14.9142 -14.9142 -14.9142 -14.9142 -14.9142 -14.9142 -14.9142 -14.9142 -14.9142 -14.9142 -14.9142 -14.9142 -14.9142 -14.9142 -14.9142 -14.9142 -14.9142 -14.9142 -14.9142 -14.9142 -14.9142 -14.9142 -14.9142 -14.9142 -14.9142 -14.9142 -14.9142 -14.9142 -14.9142 -14.9142 -14.9142 -14.9142 -14.9142 -14.9142 -14.9142 -14.9142 -14.9142 -14.9142 -14.9142 -14.9142 -14.9142 -14.9142 -14.9142 -14.9142 -14.9142 -14.9142 -14.9142 -14.9142 -14.9142 -14.9142 -14.9142 -14.9142 -14.9142 -14.9142 -14.9142 -14.9142 -14.9142 -14.9142 -14.9142 -14.9142 -14.9142 -14.9142 -14.9142 -14.9142 -14.9142 -14.9142 -14.9142 -14.9142 -14.9142 -14.9142 -14.9142 -14.9142 -14.9142 -14.9142 -14.9142 -14.9142 -14.9142 -14.9142 -14.9142 -14.9142 -14.9142 -14.9142 -14.9142 -14.9142 -14.9142 -14.9142 -14.9142 -14.9142 -14.9142 -14.9142 -14.9142 -14.9142 -14.9142 -14.9142 -14.9142 -14.9142 -14.9142 -14.9142 -14.9142 -14.9142 -14.9142 -14.9142 -14.9142 -14.9142 -14.9142 -14.9142 -14.9142 -14.9142 -14.9142 -14.9142 -14.9142 -14.9142 -14.9142 -14.9142 -14.9142 -14.9142 -14.9142 -14.9142 -14.9142 -14.9142 -14.9142 -14.9142 -14.9142 -14.9142 -14.9142 -14.9142 -14.9142 -14.9142 -14.9142 -14.9142 -15.0007 -15.0233 -14.9142 -15.1521 -15.131 -15.1725 -15.1725 -15.152 -15.152 -15.1511 -15.1737 -15.1518 -15.1285 -15.0644 -15.0872 -15.0656 -15.0225 -15.0013 -15.0223 -15.0228 -15.0872 -15.0656 -15.0876 -15.1527 -14.9246 -14.9142 -14.9142 -14.9142 -14.9142 -14.9142 -14.9142 -14.9142 -14.9142 -14.9142 -14.9142 -14.9142 -14.9142 -14.9142 -14.9142 -14.9142 -14.9142 -14.9142 -15.0212 -15.023 -15.0057 -15.0656 -14.9142 -14.9142 -14.9142 -14.9142 -14.9142 -14.9142 -14.9142 -14.9142 -14.9142 -14.9142 -14.9142 -14.979 -14.9142 -14.9142 -14.9142 -14.9142 -14.9142 -14.9142 -14.9142 -14.9142 -14.9142 -14.9142 -14.9142 -14.9142 -14.9142 -14.9142 -14.9142 -14.9142 -14.9142 -14.9142 -14.9142 -14.9142 -14.9142 -14.9142 -14.9142 -14.9142 -14.9142 -14.9142 -14.9142 -14.9142 -14.9142
-37.0678 -39.2527 -40.9602 -32.7391 -32.9765 -36.6549 -40.0758 -36.6952 -35.1494 -51.4857 -35.5142 -52.6066 -40.4915 -39.6338 -46.1849 -41.063 -44.837 -37.8587 -34.4997 -33.8901 -33.2906 -32.9073 -34.0248 -30.7543 -28.1971 -26.8183 -26.8171 -29.6452 -24.8937 -27.7253 -26.2216 -24.2955 -21.0284 -20.5031 -20.0752 -19.3088 -19.0668 -18.8778 -18.5973 -18.2537 -18.0539 -18.3288 -17.8467 -16.8338 -16.8628 -17.3143 -17.2505 -16.8364 -17.151 -18.2259 -17.6282 -17.6752 -17.3898 -16.9506 -16.1998 -15.7638 -15.438 -15.2686 -15.2876 -15.2925 -15.2678 -15.2016 -15.1147 -15.1152 -15.0726 -14.9195 -14.9195 -14.9195 -14.9195 -14.9195 -14.9195 -14.9195 -14.9195 -14.9195 -14.9195 -14.9195 -14.9195 -14.9195 -14.9195 -14.9195 -14.9195 -14.9195 -14.9195 -14.9195 -14.9195 -14.9195 -14.9195 -14.9195 -14.9195 -14.9195 -14.9195 -14.9195 -14.9195 -14.9195 -14.9195 -14.9195 -14.9195 -14.9195 -14.9195 -14.9195 -14.9195 -14.9195 -14.9195 -14.9195 -14.9195 -14.9195 -14.9195 -14.9195 -14.9195 -14.9195 -14.9195 -14.9195 -14.9195 -14.9195 -14.9195 -14.9195 -14.9195 -14.9195 -14.9195 -14.9195 -14.9195 -14.9195 -14.9195 -14.9195 -14.9195 -14.9195 -14.9195 -14.9195 -14.9195 -14.9195 -14.9195 -14.9195 -14.9195 -14.9195 -14.9195 -14.9195 -14.9195 -14.9195 -14.9195 -14.9195 -14.9195 -14.9195 -14.9195 -14.9195 -14.9195 -14.9195 -14.9195 -14.9195 -14.9195 -14.9195 -14.9195 -14.9195 -14.9195 -14.9195 -14.9195 -14.9195 -14.9195 -14.9195 -14.9195 -14.9195 -14.9195 -14.9195 -14.9195 -14.9195 -14.9195 -14.9195 -14.9195 -14.9195 -14.9195 -14.9195 -14.9195 -14.9195 -14.9195 -14.9195 -14.9195 -14.9195 -14.9195 -14.9195 -14.9195 -14.9195 -14.9195 -14.9195 -14.9195 -14.9195 -14.9195 -14.9195 -14.9195 -14.9195 -14.9195 -14.9195 -14.9195 -14.9195 -14.9195 -14.9195 -14.9195 -14.9195 -14.9195 -14.9195 -14.9195 -14.9195 -14.9195 -14.9195 -14.9195 -14.9195 -14.9195 -14.9195 -14.9195 -14.9195 -14.9195 -14.9195 -14.9195 -14.9195 -14.9195 -14.9195 -14.9195 -14.9195 -14.9195 -14.9195 -14.9195 -14.9195 -14.9195 -14.9195 -14.9195 -14.9195 -14.9195 -14.9195 -14.9195 -14.9195 -14.9195 -14.9195 -14.9195 -14.9195 -14.9195 -14.9195 -14.9195 -14.9195 -14.9195 -14.9195 -14.9195 -14.9195 -14.9195 -14.9195 -14.9195 -14.9195 -14.9195 -14.9195 -14.9195 -14.9195 -14.9195 -14.9195 -14.9195 -15.0492 -15.114 -15.1765 -15.2005 -15.2017 -15.2436 -15.1789 -15.1575 -15.1789 -15.1354 -15.1564 -15.1579 -15.0713 -15.0701 -15.0503 -15.0276 -15.0059 -15.0061 -15.0709 -15.0926 -15.1359 -15.1573 -14.9195 -14.9195 -14.9195 -14.9195 -14.9195 -14.9195 -14.9195 -14.9195 -14.9195 -14.9195 -14.9195 -14.9195 -14.9195 -14.9195 -14.9195 -14.9195 -14.9801 -15.0915 -14.9195 -14.9195 -14.9195 -14.9195 -14.9195 -14.9195 -14.9195 -14.9195 -14.9195 -14.9195 -14.9195 -14.9195 -14.9195 -14.9195 -14.9195 -14.9195 -14.9195 -14.8978 -14.9195 -14.9195 -14.9195 -14.9195 -14.9195 -14.9195 -14.9195 -14.9195 -14.9195 -14.9195 -14.9195 -14.9195 -14.9195 -14.9195 -14.9195 -14.9195 -14.9195 -14.9195 -14.9195 -14.9195 -14.9195 -14.9195 -14.9195 -14.9195 -14.9195 -14.9195 -14.9195
-34.6331 -39.3489 -39.134 -33.0736 -37.7281 -42.822 -47.0982 -46.3964 -41.0106 -38.6768 -38.324 -38.323 -58.2542 -52.1972 -51.4172 -45.8808 -43.3663 -37.6494 -34.7957 -33.3199 -32.0921 -31.1173 -31.6255 -30.1563 -28.68 -28.0909 -26.6977 -34.893 -25.9571 -25.3813 -25.7733 -25.8071 -21.1114 -20.4918 -20.0784 -19.5789 -19.3342 -19.0619 -18.9625 -18.5181 -18.1361 -17.6787 -17.3843 -17.0661 -16.8392 -17.1097 -16.6362 -17.0295 -16.6637 -17.549 -17.2416 -17.4252 -17.0674 -16.8819 -16.2751 -15.7982 -15.5107 -15.4262 -15.3384 -15.2322 -15.2101 -15.1657 -15.123 -15.1001 -14.9326 -14.9277 -14.9277 -14.9277 -14.9277 -14.9277 -14.9277 -14.9277 -14.9277 -14.9277 -14.9277 -14.9277 -14.9277 -14.9277 -14.9277 -14.9277 -14.9277 -14.9277 -14.9277 -14.9277 -14.9277 -14.9277 -14.9277 -14.9277 -14.9277 -14.9277 -14.9277 -14.9277 -14.9277 -14.9277 -14.9277 -14.9277 -14.9277 -14.9277 -14.9277 -14.9277 -14.9277 -14.9277 -14.9277 -14.9277 -14.9277 -14.9277 -14.9277 -14.9277 -14.9277 -14.9277 -14.9277 -14.9277 -14.9277 -14.9277 -14.9277 -14.9277 -14.9277 -14.9277 -14.9277 -14.9277 -14.9277 -14.9277 -14.9277 -14.9277 -14.9277 -14.9277 -14.9277 -14.9277 -14.9277 -14.9277 -14.9277 -14.9277 -14.9277 -14.9277 -14.9277 -14.9277 -14.9277 -14.9277 -14.9277 -14.9277 -14.9277 -14.9277 -14.9277 -14.9277 -14.9277 -14.9277 -14.9277 -14.9277 -14.9277 -14.9277 -14.9277 -14.9277 -14.9277 -14.9277 -14.9277 -14.9277 -14.9277 -14.9277 -14.9277 -14.9277 -14.9277 -14.9277 -14.9277 -14.9277 -14.9277 -14.9277 -14.9277 -14.9277 -14.9277 -14.9277 -14.9277 -14.9277 -14.9277 -14.9277 -14.9277 -14.9277 -14.9277 -14.9277 -14.9277 -14.9277 -14.9277 -14.9277 -14.9277 -14.9277 -14.9277 -14.9277 -14.9277 -14.9277 -14.9277 -14.9277 -14.9277 -14.9277 -14.9277 -14.9277 -14.9277 -14.9277 -14.9277 -14.9277 -14.9277 -14.9277 -14.9277 -14.9277 -14.9277 -14.9277 -14.9277 -14.9277 -14.9277 -14.9277 -14.9277 -14.9277 -14.9277 -14.9277 -14.9277 -14.9277 -14.9277 -14.9277 -14.9277 -14.9277 -14.9277 -14.9277 -14.9277 -14.9277 -14.9277 -14.9277 -14.9277 -14.9277 -14.9277 -14.9277 -14.9277 -14.9277 -14.9277 -14.9277 -14.9277 -14.9277 -14.9277 -14.9277 -14.9277 -14.9277 -14.9277 -14.9277 -14.9277 -14.9277 -14.9277 -14.9277 -14.9277 -14.9277 -14.9277 -14.9277 -14.9277 -14.9277 -14.9277 -14.9277 -15.1427 -15.1451 -15.208 -15.1474 -15.2309 -15.231 -15.1687 -15.1878 -15.2308 -15.1876 -15.1242 -15.0587 -15.0575 -15.0794 -15.0371 -15.0357 -15.0353 -15.0582 -15.0791 -15.0782 -15.1654 -14.9277 -14.9277 -14.9277 -14.9277 -14.9277 -14.9277 -14.9277 -14.9277 -14.9277 -14.9277 -14.9277 -14.9277 -14.9277 -14.9277 -14.9277 -14.9277 -14.9277 -14.9277 -14.9277 -14.9277 -14.9277 -14.9277 -14.9277 -14.9277 -14.9277 -14.9277 -14.9277 -14.9277 -14.9277 -14.9277 -14.9277 -14.9277 -14.9277 -14.9277 -14.9277 -14.9728 -14.9061 -14.9277 -14.9277 -14.9277 -14.9277 -14.9277 -14.9277 -14.9277 -14.9277 -14.9277 -14.9277 -14.9277 -14.9277 -14.9277 -14.9277 -14.9277 -14.9277 -14.9277 -14.9277 -14.9277 -14.9277 -14.9277 -14.9277 -14.9277 -14.9277 -14.9277 -14.9277
-34.1007 -33.2844 -34.8205 -37.2021 -41.1899 -45.5347 -48.3306 -48.0931 -44.5677 -43.4328 -37.4484 -36.9004 -40.5011 -49.6009 -52.2437 -53.4942 -41.0182 -38.1274 -37.4917 -50.7299 -32.1107 -31.4032 -30.3445 -29.2265 -28.3795 -31.9193 -28.9213 -31.6497 -34.1842 -25.3627 -25.3075 -35.1269 -23.1949 -21.1189 -20.6168 -20.46 -20.0997 -19.708 -19.3727 -18.9389 -18.0089 -17.3708 -17.1314 -17.1995 -16.4986 -16.2905 -16.1062 -16.2219 -16.1303 -16.737 -16.8871 -17.0609 -16.652 -16.5408 -16.1529 -15.7662 -15.5416 -15.457 -15.3703 -15.2831 -15.26 -15.1965 -15.1531 -15.1106 -15.0685 -14.937 -14.937 -14.937 -14.937 -14.937 -14.937 -14.937 -14.937 -14.937 -14.937 -14.937 -14.937 -14.937 -14.937 -14.937 -14.937 -14.937 -14.937 -14.937 -14.937 -14.937 -14.937 -14.937 -14.937 -14.937 -14.937 -14.937 -14.937 -14.937 -14.937 -14.937 -14.937 -14.937 -14.937 -14.937 -14.937 -14.937 -14.937 -14.937 -14.937 -14.937 -14.937 -14.937 -14.937 -14.937 -14.937 -14.937 -14.937 -14.937 -14.937 -14.937 -14.937 -14.937 -14.937 -14.937 -14.937 -14.937 -14.937 -14.937 -14.937 -14.937 -14.937 -14.937 -14.937 -14.937 -14.937 -14.937 -14.937 -14.937 -14.937 -14.937 -14.937 -14.937 -14.937 -14.937 -14.937 -14.937 -14.937 -14.937 -14.937 -14.937 -14.937 -14.937 -14.937 -14.937 -14.937 -14.937 -14.937 -14.937 -14.937 -14.937 -14.937 -14.937 -14.937 -14.937 -14.937 -14.937 -14.937 -14.937 -14.937 -14.937 -14.937 -14.937 -14.937 -14.937 -14.937 -14.937 -14.937 -14.937 -14.937 -14.937 -14.937 -14.937 -14.937 -14.937 -14.937 -14.937 -14.937 -14.937 -14.937 -14.937 -14.937 -14.937 -14.937 -14.937 -14.937 -14.937 -14.937 -14.937 -14.937 -14.937 -14.937 -14.937 -14.937 -14.937 -14.937 -14.937 -14.937 -14.937 -14.937 -14.937 -14.937 -14.937 -14.937 -14.937 -14.937 -14.937 -14.937 -14.937 -14.937 -14.937 -14.937 -14.937 -14.937 -14.937 -14.937 -14.937 -14.937 -14.937 -14.937 -14.937 -14.937 -14.937 -14.937 -14.937 -14.937 -14.937 -14.937 -14.937 -14.937 -14.937 -14.937 -14.937 -14.937 -14.937 -14.937 -14.937 -14.937 -14.937 -14.937 -14.937 -14.937 -14.937 -14.937 -14.937 -14.937 -14.937 -15.1304 -15.1772 -15.254 -15.1758 -15.1749 -15.1749 -15.2213 -15.2186 -15.2413 -15.2645 -15.1747 -15.0884 -15.0883 -15.0661 -15.0451 -15.045 -15.0451 -15.0667 -15.0884 -15.1311 -15.1542 -14.937 -14.937 -14.937 -14.937 -14.937 -14.937 -14.937 -14.937 -14.937 -14.937 -14.937 -14.937 -14.937 -14.937 -14.937 -14.937 -14.937 -14.937 -14.937 -14.937 -14.937 -14.937 -14.937 -14.937 -14.937 -14.937 -14.937 -14.937 -14.937 -14.937 -14.937 -14.937 -14.937 -14.937 -2.58846 -14.6129 -15.1532 -14.937 -14.937 -14.937 -14.937 -14.937 -14.937 -14.937 -14.937 -14.937 -14.937 -14.937 -14.937 -14.937 -14.937 -14.937 -14.937 -14.937 -14.937 -14.937 -14.937 -14.937 -14.937 -14.937 -14.937 -14.937 -14.937
-33.5314 -33.2214 -33.9331 -40.3899 -43.4222 -47.9683 -51.8437 -53.4362 -47.3634 -48.6449 -39.8583 -38.3724 -38.1475 -40.2337 -42.6804 -41.3474 -39.814 -41.1115 -56.1513 -44.7216 -33.5275 -33.8718 -29.9567 -29.9947 -29.6252 -31.0257 -43.7806 -30.3844 -56.6091 -26.9038 -38.7116 -32.4277 -26.1153 -23.6993 -23.0012 -22.8143 -21.6078 -20.5285 -19.7313 -19.0494 -18.1616 -17.5741 -17.4805 -17.3642 -17.4236 -17.2533 -16.7268 -16.6182 -15.9851 -15.8801 -16.2534 -16.5573 -16.4157 -16.3403 -16.0102 -15.6609 -15.6198 -15.4678 -15.4261 -15.338 -15.2732 -15.2292 -15.1872 -15.1434 -15.0782 -15.0564 -14.9482 -14.9482 -14.9482 -14.9482 -14.9482 -14.9482 -14.9482 -14.9482 -14.9482 -14.9482 -14.9482 -14.9482 -14.9482 -14.9482 -14.9482 -14.9482 -14.9482 -14.9482 -14.9482 -14.9482 -14.9482 -14.9482 -14.9482 -14.9482 -14.9482 -14.9482 -14.9482 -14.9482 -14.9482 -14.9482 -14.9482 -14.9482 -14.9482 -14.9482 -14.9482 -14.9482 -14.9482 -14.9482 -14.9482 -14.9482 -14.9482 -14.9482 -14.9482 -14.9482 -14.9482 -14.9482 -14.9482 -14.9482 -14.9482 -14.9482 -14.9482 -14.9482 -14.9482 -14.9482 -14.9482 -14.9482 -14.9482 -14.9482 -14.9482 -14.9482 -14.9482 -14.9482 -14.9482 -14.9482 -14.9482 -14.9482 -14.9482 -14.9482 -14.9482 -14.9482 -14.9482 -14.9482 -14.9482 -14.9482 -14.9482 -14.9482 -14.9482 -14.9482 -14.9482 -14.9482 -14.9482 -14.9482 -14.9482 -14.9482 -14.9482 -14.9482 -14.9482 -14.9482 -14.9482 -14.9482 -14.9482 -14.9482 -14.9482 -14.9482 -14.9482 -14.9482 -14.9482 -14.9482 -14.9482 -14.9482 -14.9482 -14.9482 -14.9482 -14.9482 -14.9482 -14.9482 -14.9482 -14.9482 -14.9482 -14.9482 -14.9482 -14.9482 -14.9482 -14.9482 -14.9482 -14.9482 -14.9482 -14.9482 -14.9482 -14.9482 -14.9482 -14.9482 -14.9482 -14.9482 -14.9482 -14.9482 -14.9482 -14.9482 -14.9482 -14.9482 -14.9482 -14.9482 -14.9482 -14.9482 -14.9482 -14.9482 -14.9482 -14.9482 -14.9482 -14.9482 -14.9482 -14.9482 -14.9482 -14.9482 -14.9482 -14.9482 -14.9482 -14.9482 -14.9482 -14.9482 -14.9482 -14.9482 -14.9482 -14.9482 -14.9482 -14.9482 -14.9482 -14.9482 -14.9482 -14.9482 -14.9482 -14.9482 -14.9482 -14.9482 -14.9482 -14.9482 -14.9482 -14.9482 -14.9482 -14.9482 -14.9482 -14.9482 -14.9482 -14.9482 -14.9482 -14.9482 -14.9482 -14.9482 -14.9482 -14.9482 -14.9482 -14.9482 -14.9482 -14.9482 -14.9482 -14.9482 -15.0996 -15.1597 -15.1479 -15.0992 -15.229 -15.1865 -15.1413 -15.1652 -15.1872 -15.2918 -15.1656 -15.0996 -15.078 -15.0563 -15.035 -15.0569 -15.0563 -15.0564 -15.0779 -15.1656 -15.1207 -14.9482 -14.9482 -14.9482 -14.9482 -14.9482 -14.9482 -14.9482 -14.9482 -14.9482 -14.9482 -14.9482 -14.9482 -14.9482 -14.9482 -14.9482 -14.9482 -14.9482 -14.9482 -14.9482 -14.9482 -14.9482 -14.9482 -14.9482 -14.9482 -14.9482 -14.9482 -14.9482 -14.9482 -14.9482 -14.9482 -14.9482 -14.9482 -14.9482 -14.9482 -14.9482 -15.094 -14.9482 -14.9482 -14.9482 -14.9482 -14.9482 -14.9482 -14.9482 -14.9482 -14.9482 -14.9482 -14.9482 -14.9482 -14.9482 -14.9482 -14.9482 -14.9482 -14.9482 -14.9482 -14.9482 -14.9482 -14.9482 -14.9482 -14.9482 -14.9482 -14.9482 -14.9482 -14.9482
-35.8936 -33.579 -34.6433 -45.0667 -45.8804 -47.9509 -50.2527 -49.8893 -47.7627 -51.8205 -54.941 -40.5179 -38.8862 -40.4462 -40.4259 -41.4358 -45.7071 -38.0116 -37.6577 -38.0541 -43.9959 -32.427 -37.9004 -36.1746 -34.7032 -33.0673 -29.9976 -28.8342 -30.4671 -29.4099 -28.6455 -29.3414 -29.7721 -28.9479 -38.1821 -27.7506 -23.5846 -21.2994 -20.4316 -19.0417 -18.4125 -17.8916 -17.9523 -17.9424 -16.9987 -16.6351 -16.5209 -16.2858 -16.7679 -16.2463 -15.8725 -15.806 -15.7644 -15.854 -15.8964 -15.8302 -15.6769 -15.547 -15.4185 -15.3962 -15.3308 -15.2864 -15.2011 -15.1801 -15.1792 -15.0871 -14.9631 -14.9631 -14.9631 -14.9631 -14.9631 -14.9631 -14.9631 -14.9631 -14.9631 -14.9631 -14.9631 -14.9631 -14.9631 -14.9631 -14.9631 -14.9631 -14.9631 -14.9631 -14.9631 -14.9631 -14.9631 -14.9631 -14.9631 -14.9631 -14.9631 -14.9631 -14.9631 -14.9631 -14.9631 -14.9631 -14.9631 -14.9631 -14.9631 -14.9631 -14.9631 -14.9631 -14.9631 -14.9631 -14.9631 -14.9631 -14.9631 -14.9631 -14.9631 -14.9631 -14.9631 -14.9631 -14.9631 -14.9631 -14.9631 -14.9631 -14.9631 -14.9631 -14.9631 -14.9631 -14.9631 -14.9631 -14.9631 -14.9631 -14.9631 -14.9631 -14.9631 -14.9631 -14.9631 -14.9631 -14.9631 -14.9631 -14.9631 -14.9631 -14.9631 -14.9631 -14.9631 -14.9631 -14.9631 -14.9631 -14.9631 -14.9631 -14.9631 -14.9631 -14.9631 -14.9631 -14.9631 -14.9631 -14.9631 -14.9631 -14.9631 -14.9631 -14.9631 -14.9631 -14.9631 -14.9631 -14.9631 -14.9631 -14.9631 -14.9631 -14.9631 -14.9631 -14.9631 -14.9631 -14.9631 -14.9631 -14.9631 -14.9631 -14.9631 -14.9631 -14.9631 -14.9631 -14.9631 -14.9631 -14.9631 -14.9631 -14.9631 -14.9631 -14.9631 -14.9631 -14.9631 -14.9631 -14.9631 -14.9631 -14.9631 -14.9631 -14.9631 -14.9631 -14.9631 -14.9631 -14.9631 -14.9631 -14.9631 -14.9631 -14.9631 -14.9631 -14.9631 -14.9631 -14.9631 -14.9631 -14.9631 -14.9631 -14.9631 -14.9631 -14.9631 -14.9631 -14.9631 -14.9631 -14.9631 -14.9631 -14.9631 -14.9631 -14.9631 -14.9631 -14.9631 -14.9631 -14.9631 -14.9631 -14.9631 -14.9631 -14.9631 -14.9631 -14.9631 -14.9631 -14.9631 -14.9631 -14.9631 -14.9631 -14.9631 -14.9631 -14.9631 -14.9631 -14.9631 -14.9631 -14.9631 -14.9631 -14.9631 -14.9631 -14.9631 -14.9631 -14.9631 -14.9631 -14.9631 -14.9631 -14.9631 -14.9631 -14.9631 -14.9631 -14.9631 -14.9631 -14.9631 -14.9631 -15.1794 -15.1781 -15.1573 -15.1575 -15.2007 -15.2216 -15.2432 -15.1582 -15.2422 -15.2042 -15.2469 -15.1158 -15.0712 -15.0707 -15.0492 -15.0708 -15.0715 -15.0712 -15.0916 -15.0931 -15.1371 -14.9631 -14.9631 -14.9631 -14.9631 -14.9631 -14.9631 -14.9631 -14.9631 -14.9631 -14.9631 -14.9631 -14.9631 -14.9631 -14.9631 -14.9631 -14.9631 -14.9631 -14.9631 -14.9631 -14.9631 -14.9631 -14.9631 -14.9631 -14.9631 -14.9631 -14.9631 -14.9631 -14.9631 -14.9631 -14.9631 -14.9631 -14.9631 -14.9631 -14.9631 -15.0496 -14.9631 -14.9631 -14.9631 -14.9631 -14.9631 -14.9631 -14.9631 -14.9631 -14.9631 -14.9631 -14.9631 -14.9631 -14.9631 -14.9631 -14.9631 -14.9631 -14.9631 -14.9631 -14.9631 -14.9631 -14.9631 -14.9631 -14.9631 -14.9631 -14.9631 -14.9631 -14.9631 -14.9631
-49.8365 -42.3837 -35.1825 -42.8298 -48.1121 -45.1073 -44.5324 -44.5963 -48.5117 -46.7319 -51.1837 -50.4618 -40.9425 -40.6821 -42.7691 -56.9914 -48.0169 -38.4008 -35.8829 -35.0854 -36.0447 -35.2696 -38.3998 -35.5497 -34.417 -36.3968 -35.4603 -52.3873 -28.0904 -26.7172 -27.93 -25.6573 -26.689 -29.7645 -38.5922 -32.7328 -27.0145 -22.6733 -20.9019 -19.6328 -18.8629 -18.1456 -17.6004 -17.3022 -17.0149 -16.8896 -16.6439 -16.624 -16.7129 -16.3572 -16.3056 -15.9289 -15.9742 -16.1947 -15.7153 -15.6283 -15.5859 -15.5631 -15.5213 -15.4138 -15.3254 -15.3242 -15.3041 -15.1726 -15.1515 -15.1746 -14.9784 -14.9784 -14.9784 -14.9784 -14.9784 -14.9784 -14.9784 -14.9784 -14.9784 -14.9784 -14.9784 -14.9784 -14.9784 -14.9784 -14.9784 -14.9784 -14.9784 -14.9784 -14.9784 -14.9784 -14.9784 -14.9784 -14.9784 -14.9784 -14.9784 -14.9784 -14.9784 -14.9784 -14.9784 -14.9784 -14.9784 -14.9784 -14.9784 -14.9784 -14.9784 -14.9784 -14.9784 -14.9784 -14.9784 -14.9784 -14.9784 -14.9784 -14.9784 -14.9784 -14.9784 -14.9784 -14.9784 -14.9784 -14.9784 -14.9784 -14.9784 -14.9784 -14.9784 -14.9784 -14.9784 -14.9784 -14.9784 -14.9784 -14.9784 -14.9784 -14.9784 -14.9784 -14.9784 -14.9784 -14.9784 -14.9784 -14.9784 -14.9784 -14.9784 -14.9784 -14.9784 -14.9784 -14.9784 -14.9784 -14.9784 -14.9784 -14.9784 -14.9784 -14.9784 -14.9784 -14.9784 -14.9784 -14.9784 -14.9784 -14.9784 -14.9784 -14.9784 -14.9784 -14.9784 -14.9784 -14.9784 -14.9784 -14.9784 -14.9784 -14.9784 -14.9784 -14.9784 -14.9784 -14.9784 -14.9784 -14.9784 -14.9784 -14.9784 -14.9784 -14.9784 -14.9784 -14.9784 -14.9784 -14.9784 -14.9784 -14.9784 -14.9784 -14.9784 -14.9784 -14.9784 -14.9784 -14.9784 -14.9784 -14.9784 -14.9784 -14.9784 -14.9784 -14.9784 -14.9784 -14.9784 -14.9784 -14.9784 -14.9784 -14.9784 -14.9784 -14.9784 -14.9784 -14.9784 -14.9784 -14.9784 -14.9784 -14.9784 -14.9784 -14.9784 -14.9784 -14.9784 -14.9784 -14.9784 -14.9784 -14.9784 -14.9784 -14.9784 -14.9784 -14.9784 -14.9784 -14.9784 -14.9784 -14.9784 -14.9784 -14.9784 -14.9784 -14.9784 -14.9784 -14.9784 -14.9784 -14.9784 -14.9784 -14.9784 -14.9784 -14.9784 -14.9784 -14.9784 -14.9784 -14.9784 -14.9784 -14.9784 -14.9784 -14.9784 -14.9784 -14.9784 -14.9784 -14.9784 -14.9784 -14.9784 -14.9784 -14.9784 -14.9784 -14.9784 -14.9784 -14.9784 -14.9784 -15.0432 -15.2154 -15.1978 -15.1514 -15.1735 -15.2614 -15.1528 -15.2153 -15.1296 -15.1307 -15.1301 -15.1087 -15.0862 -15.1081 -15.1296 -15.1081 -15.0877 -15.1066 -15.1088 -15.1277 -15.1764 -14.9784 -14.9784 -14.9784 -14.9784 -14.9784 -14.9784 -14.9784 -14.9784 -14.9784 -14.9784 -14.9784 -14.9784 -14.9784 -14.9784 -14.9784 -14.9784 -14.9784 -14.9784 -14.9784 -14.9784 -14.9784 -14.9784 -14.9784 -14.9784 -14.9784 -14.9784 -14.9784 -14.9784 -14.9784 -14.9784 -14.9784 -14.9784 -14.9784 -14.9784 -15.0216 -14.9784 -14.9784 -14.9784 -14.9784 -14.9784 -14.9784 -14.9784 -14.9784 -14.9784 -14.9784 -14.9784 -14.9784 -14.9784 -14.9784 -14.9784 -14.9784 -14.9784 -14.9784 -14.9784 -14.9784 -14.9784 -14.9784 -14.9784 -14.9784 -14.9784 -14.9784 -14.9784 -14.9784
-38.6187 -40.1014 -43.0235 -41.3199 -43.5879 -42.0616 -41.6401 -41.6629 -44.9324 -54.8219 -49.6264 -50.3734 -43.4693 -46.3225 -59.1697 -52.5651 -47.2494 -38.9122 -35.8699 -34.3603 -33.9573 -35.0747 -40.0735 -33.491 -37.0244 -38.3445 -29.702 -29.7432 -35.6056 -29.0332 -24.9555 -24.6041 -27.2606 -28.0072 -32.5956 -33.7687 -31.3487 -23.7052 -21.4831 -20.5204 -18.7249 -18.0433 -17.7903 -17.3624 -17.0286 -16.8333 -17.1799 -16.846 -17.1444 -16.6361 -16.742 -16.2437 -17.3357 -16.46 -15.8696 -15.7281 -15.6455 -15.5795 -15.5588 -15.4734 -15.4508 -15.3613 -15.2995 -15.2328 -15.1252 -15.0839 -15.0171 -14.9955 -14.9955 -14.9955 -14.9955 -14.9955 -14.9955 -14.9955 -14.9955 -14.9955 -14.9955 -14.9955 -14.9955 -14.9955 -14.9955 -14.9955 -14.9955 -14.9955 -14.9955 -14.9955 -14.9955 -14.9955 -14.9955 -14.9955 -14.9955 -14.9955 -14.9955 -14.9955 -14.9955 -14.9955 -14.9955 -14.9955 -14.9955 -14.9955 -14.9955 -14.9955 -14.9955 -14.9955 -14.9955 -14.9955 -14.9955 -14.9955 -14.9955 -14.9955 -14.9955 -14.9955 -14.9955 -14.9955 -14.9955 -14.9955 -14.9955 -14.9955 -14.9955 -14.9955 -14.9955 -14.9955 -14.9955 -14.9955 -14.9955 -14.9955 -14.9955 -14.9955 -14.9955 -14.9955 -14.9955 -14.9955 -14.9955 -14.9955 -14.9955 -14.9955 -14.9955 -14.9955 -14.9955 -14.9955 -14.9955 -14.9955 -14.9955 -14.9955 -14.9955 -14.9955 -14.9955 -14.9955 -14.9955 -14.9955 -14.9955 -14.9955 -14.9955 -14.9955 -14.9955 -14.9955 -14.9955 -14.9955 -14.9955 -14.9955 -14.9955 -14.9955 -14.9955 -14.9955 -14.9955 -14.9955 -14.9955 -14.9955 -14.9955 -14.9955 -14.9955 -14.9955 -14.9955 -14.9955 -14.9955 -14.9955 -14.9955 -14.9955 -14.9955 -14.9955 -14.9955 -14.9955 -14.9955 -14.9955 -14.9955 -14.9955 -14.9955 -14.9955 -14.9955 -14.9955 -14.9955 -14.9955 -14.9955 -14.9955 -14.9955 -14.9955 -14.9955 -14.9955 -14.9955 -14.9955 -14.9955 -14.9955 -14.9955 -14.9955 -14.9955 -14.9955 -14.9955 -14.9955 -14.9955 -14.9955 -14.9955 -14.9955 -14.9955 -14.9955 -14.9955 -14.9955 -14.9955 -14.9955 -14.9955 -14.9955 -14.9955 -14.9955 -14.9955 -14.9955 -14.9955 -14.9955 -14.9955 -14.9955 -14.9955 -14.9955 -14.9955 -14.9955 -14.9955 -14.9955 -14.9955 -14.9955 -14.9955 -14.9955 -14.9955 -14.9955 -14.9955 -14.9955 -14.9955 -14.9955 -14.9955 -14.9955 -14.9955 -14.9955 -14.9955 -14.9955 -14.9955 -14.9955 -14.9955 -15.1097 -15.1263 -15.1945 -15.1715 -15.2125 -15.1895 -15.1257 -15.1474 -15.1684 -15.1259 -15.1462 -15.1252 -15.1472 -15.1253 -15.1037 -15.1049 -15.1257 -15.1252 -15.167 -15.1685 -14.9955 -14.9955 -14.9955 -14.9955 -14.9955 -14.9955 -14.9955 -14.9955 -14.9955 -14.9955 -14.9955 -14.9955 -14.9955 -14.9955 -14.9955 -14.9955 -14.9955 -14.9955 -14.9955 -14.9955 -14.9955 -14.9955 -14.9955 -14.9955 -14.9955 -14.9955 -14.9955 -14.9955 -14.9955 -14.9955 -14.9955 -14.9955 -14.9955 -15.0604 -15.1457 -14.9955 -14.9955 -14.9955 -14.9955 -14.9955 -14.9955 -14.9955 -14.9955 -14.9955 -14.9955 -14.9955 -14.9955 -14.9955 -14.9955 -14.9955 -14.9955 -14.9955 -14.9955 -14.9955 -14.9955 -14.9955 -14.9955 -14.9955 -14.9955 -14.9955 -14.9955 -14.9955 -14.9955
-38.611 -38.648 -47.1047 -42.1618 -43.8098 -39.387 -38.9689 -39.5014 -45.0864 -43.8874 -44.7017 -45.0724 -46.1973 -50.2605 -57.2353 -58.4996 -48.8112 -39.0987 -36.0578 -36.073 -33.4531 -32.5556 -31.9701 -32.0733 -32.3535 -29.4459 -28.2488 -29.4743 -28.0848 -30.8583 -24.86 -24.0388 -24.1549 -27.3583 -26.8608 -34.0554 -29.2974 -22.9814 -21.0214 -19.787 -18.9372 -18.2368 -17.9798 -17.3686 -17.6335 -17.0079 -17.8688 -17.3414 -17.3926 -17.5525 -17.1764 -16.6298 -17.7654 -16.8765 -16.3181 -15.9069 -15.6876 -15.6885 -15.623 -15.5161 -15.4301 -15.322 -15.2986 -15.2562 -15.189 -15.083 -15.0121 -15.017 -15.017 -15.017 -15.017 -15.017 -15.017 -15.017 -15.017 -15.017 -15.017 -15.017 -15.017 -15.017 -15.017 -15.017 -15.017 -15.017 -15.017 -15.017 -15.017 -15.017 -15.017 -15.017 -15.017 -15.017 -15.017 -15.017 -15.017 -15.017 -15.017 -15.017 -15.017 -15.017 -15.017 -15.017 -15.017 -15.017 -15.017 -15.017 -15.017 -15.017 -15.017 -15.017 -15.017 -15.017 -15.017 -15.017 -15.017 -15.017 -15.017 -15.017 -15.017 -15.017 -15.017 -15.017 -15.017 -15.017 -15.017 -15.017 -15.017 -15.017 -15.017 -15.017 -15.017 -15.017 -15.017 -15.017 -15.017 -15.017 -15.017 -15.017 -15.017 -15.017 -15.017 -15.017 -15.017 -15.017 -15.017 -15.017 -15.017 -15.017 -15.017 -15.017 -15.017 -15.017 -15.017 -15.017 -15.017 -15.017 -15.017 -15.017 -15.017 -15.017 -15.017 -15.017 -15.017 -15.017 -15.017 -15.017 -15.017 -15.017 -15.017 -15.017 -15.017 -15.017 -15.017 -15.017 -15.017 -15.017 -15.017 -15.017 -15.017 -15.017 -15.017 -15.017 -15.017 -15.017 -15.017 -15.017 -15.017 -15.017 -15.017 -15.017 -15.017 -15.017 -15.017 -15.017 -15.017 -15.017 -15.017 -15.017 -15.017 -15.017 -15.017 -15.017 -15.017 -15.017 -15.017 -15.017 -15.017 -15.017 -15.017 -15.017 -15.017 -15.017 -15.017 -15.017 -15.017 -15.017 -15.017 -15.017 -15.017 -15.017 -15.017 -15.017 -15.017 -15.017 -15.017 -15.017 -15.017 -15.017 -15.017 -15.017 -15.017 -15.017 -15.017 -15.017 -15.017 -15.017 -15.017 -15.017 -15.017 -15.017 -15.017 -15.017 -15.017 -15.017 -15.017 -15.017 -15.017 -15.017 -15.017 -15.017 -15.017 -15.017 -15.017 -14.9738 -15.166 -15.1041 -15.1649 -15.2141 -15.1245 -15.1472 -15.1451 -15.1672 -15.1677 -15.1694 -15.1468 -15.1264 -15.1254 -15.1471 -15.1252 -15.1036 -15.1872 -15.2116 -15.2549 -15.017 -15.017 -15.017 -15.017 -15.017 -15.017 -15.017 -15.017 -15.017 -15.017 -15.017 -15.017 -15.017 -15.017 -15.017 -15.017 -15.017 -15.017 -15.017 -15.017 -15.017 -15.017 -15.017 -15.017 -15.017 -15.017 -15.017 -15.017 -15.017 -15.017 -15.017 -15.017 -15.017 -15.017 -15.1687 -15.017 -15.017 -15.017 -15.017 -15.017 -15.017 -15.017 -15.017 -15.017 -15.017 -15.017 -15.017 -15.017 -15.017 -15.017 -15.017 -15.017 -15.017 -15.017 -15.017 -15.017 -15.017 -15.017 -15.017 -15.017 -15.017 -15.017 -15.017
-38.6108 -38.5465 -38.5675 -38.6108 -38.5514 -38.5881 -38.7012 -38.8041 -39.0755 -39.2219 -40.2177 -40.6847 -45.1807 -48.0109 -52.3012 -56.1003 -49.9391 -40.1053 -36.7541 -36.8557 -34.5054 -34.4107 -33.5575 -31.6058 -42.4599 -37.5847 -38.1567 -42.1558 -42.0778 -27.3222 -25.2466 -24.3612 -23.2651 -22.9192 -23.9272 -24.2865 -23.2482 -21.4089 -20.5968 -19.0718 -18.6108 -18.2422 -17.8454 -17.5708 -18.1037 -17.2452 -17.4589 -17.6273 -18.4534 -19.4479 -17.6418 -17.1975 -18.0069 -17.1457 -16.6008 -16.0807 -15.6888 -15.6022 -15.601 -15.5156 -15.4507 -15.3409 -15.2763 -15.2968 -15.2768 -15.1683 -15.1462 -15.1253 -15.0382 -15.0382 -15.0382 -15.0382 -15.0382 -15.0382 -15.0382 -15.0382 -15.0382 -15.0382 -15.0382 -15.0382 -15.0382 -15.0382 -15.0382 -15.0382 -15.0382 -15.0382 -15.0382 -15.0382 -15.0382 -15.0382 -15.0382 -15.0382 -15.0382 -15.0382 -15.0382 -15.0382 -15.0382 -15.0382 -15.0382 -15.0382 -15.0382 -15.0382 -15.0382 -15.0382 -15.0382 -15.0382 -15.0382 -15.0382 -15.0382 -15.0382 -15.0382 -15.0382 -15.0382 -15.0382 -15.0382 -15.0382 -15.0382 -15.0382 -15.0382 -15.0382 -15.0382 -15.0382 -15.0382 -15.0382 -15.0382 -15.0382 -15.0382 -15.0382 -15.0382 -15.0382 -15.0382 -15.0382 -15.0382 -15.0382 -15.0382 -15.0382 -15.0382 -15.0382 -15.0382 -15.0382 -15.0382 -15.0382 -15.0382 -15.0382 -15.0382 -15.0382 -15.0382 -15.0382 -15.0382 -15.0382 -15.0382 -15.0382 -15.0382 -15.0382 -15.0382 -15.0382 -15.0382 -15.0382 -15.0382 -15.0382 -15.0382 -15.0382 -15.0382 -15.0382 -15.0382 -15.0382 -15.0382 -15.0382 -15.0382 -15.0382 -15.0382 -15.0382 -15.0382 -15.0382 -15.0382 -15.0382 -15.0382 -15.0382 -15.0382 -15.0382 -15.0382 -15.0382 -15.0382 -15.0382 -15.0382 -15.0382 -15.0382 -15.0382 -15.0382 -15.0382 -15.0382 -15.0382 -15.0382 -15.0382 -15.0382 -15.0382 -15.0382 -15.0382 -15.0382 -15.0382 -15.0382 -15.0382 -15.0382 -15.0382 -15.0382 -15.0382 -15.0382 -15.0382 -15.0382 -15.0382 -15.0382 -15.0382 -15.0382 -15.0382 -15.0382 -15.0382 -15.0382 -15.0382 -15.0382 -15.0382 -15.0382 -15.0382 -15.0382 -15.0382 -15.0382 -15.0382 -15.0382 -15.0382 -15.0382 -15.0382 -15.0382 -15.0382 -15.0382 -15.0382 -15.0382 -15.0382 -15.0382 -15.0382 -15.0382 -15.0382 -15.0382 -15.0382 -15.0382 -15.0382 -15.0382 -15.0382 -15.0382 -15.0382 -15.0382 -15.0382 -15.0382 -15.0382 -15.0382 -15.0382 -15.0382 -15.0382 -15.1463 -15.1654 -15.0811 -15.1914 -15.2113 -15.2108 -15.1474 -15.1463 -15.1457 -15.1463 -15.1463 -15.1247 -15.1667 -15.2074 -15.2123 -15.2335 -15.0382 -15.0382 -15.0382 -15.0382 -15.0382 -15.0382 -15.0382 -15.0382 -15.0382 -15.0382 -15.0382 -15.0382 -15.0382 -15.0382 -15.0382 -15.0382 -15.0382 -15.0382 -15.0382 -15.0382 -15.0382 -15.0382 -15.0382 -15.0382 -15.0382 -15.0382 -15.0382 -15.0382 -15.0382 -15.0382 -15.0382 -15.0382 -15.0382 -15.0382 -15.0382 -15.2112 -15.0382 -15.0382 -15.0382 -15.0382 -15.0382 -15.0382 -15.0382 -15.0382 -15.0382 -15.0382 -15.0382 -15.0382 -15.0382 -15.0382 -15.0382 -15.0382 -15.0382 -15.0382 -15.0382 -15.0382 -15.0382 -15.0382 -15.0382 -15.0382 -15.0382 -15.0382 -15.0382 -15.0382
-38.6333 -38.5905 -38.5899 -38.5282 -38.6328 -38.6113 -38.7573 -38.9497 -39.1686 -39.2151 -39.3852 -39.647 -40.4388 -41.5561 -46.6261 -52.0418 -48.4069 -40.08 -37.0547 -40.5065 -36.1954 -35.9782 -35.1542 -41.4778 -38.9204 -33.0744 -32.0442 -29.8772 -28.4066 -26.9317 -25.6071 -24.5803 -23.5843 -22.3437 -21.8609 -21.8436 -23.6349 -21.1803 -19.4227 -19.0429 -18.7758 -18.8106 -18.6493 -17.843 -18.3789 -17.6124 -17.7995 -18.1568 -18.6655 -19.145 -18.0296 -18.0651 -18.3565 -17.3839 -16.689 -16.1684 -15.7973 -15.6035 -15.5391 -15.4731 -15.4522 -15.3437 -15.2998 -15.2773 -15.1701 -15.1932 -15.149 -15.1287 -15.0613 -15.0613 -15.0613 -15.0613 -15.0613 -15.0613 -15.0613 -15.0613 -15.0613 -15.0613 -15.0613 -15.0613 -15.0613 -15.0613 -15.0613 -15.0613 -15.0613 -15.0613 -15.0613 -15.0613 -15.0613 -15.0613 -15.0613 -15.0613 -15.0613 -15.0613 -15.0613 -15.0613 -15.0613 -15.0613 -15.0613 -15.0613 -15.0613 -15.0613 -15.0613 -15.0613 -15.0613 -15.0613 -15.0613 -15.0613 -15.0613 -15.0613 -15.0613 -15.0613 -15.0613 -15.0613 -15.0613 -15.0613 -15.0613 -15.0613 -15.0613 -15.0613 -15.0613 -15.0613 -15.0613 -15.0613 -15.0613 -15.0613 -15.0613 -15.0613 -15.0613 -15.0613 -15.0613 -15.0613 -15.0613 -15.0613 -15.0613 -15.0613 -15.0613 -15.0613 -15.0613 -15.0613 -15.0613 -15.0613 -15.0613 -15.0613 -15.0613 -15.0613 -15.0613 -15.0613 -15.0613 -15.0613 -15.0613 -15.0613 -15.0613 -15.0613 -15.0613 -15.0613 -15.0613 -15.0613 -15.0613 -15.0613 -15.0613 -15.0613 -15.0613 -15.0613 -15.0613 -15.0613 -15.0613 -15.0613 -15.0613 -15.0613 -15.0613 -15.0613 -15.0613 -15.0613 -15.0613 -15.0613 -15.0613 -15.0613 -15.0613 -15.0613 -15.0613 -15.0613 -15.0613 -15.0613 -15.0613 -15.0613 -15.0613 -15.0613 -15.0613 -15.0613 -15.0613 -15.0613 -15.0613 -15.0613 -15.0613 -15.0613 -15.0613 -15.0613 -15.0613 -15.0613 -15.0613 -15.0613 -15.0613 -15.0613 -15.0613 -15.0613 -15.0613 -15.0613 -15.0613 -15.0613 -15.0613 -15.0613 -15.0613 -15.0613 -15.0613 -15.0613 -15.0613 -15.0613 -15.0613 -15.0613 -15.0613 -15.0613 -15.0613 -15.0613 -15.0613 -15.0613 -15.0613 -15.0613 -15.0613 -15.0613 -15.0613 -15.0613 -15.0613 -15.0613 -15.0613 -15.0613 -15.0613 -15.0613 -15.0613 -15.0613 -15.0613 -15.0613 -15.0613 -15.0613 -15.0613 -15.0613 -15.0613 -15.0613 -15.0613 -15.0613 -15.0613 -15.0613 -15.0613 -15.0613 -15.0613 -15.0613 -15.0613 -15.0613 -15.0829 -15.1235 -15.1709 -15.1947 -15.1478 -15.1694 -15.1692 -15.1477 -15.1478 -15.1479 -15.1887 -15.2119 -15.2363 -15.2556 -15.0613 -15.0613 -15.0613 -15.0613 -15.0613 -15.0613 -15.0613 -15.0613 -15.0613 -15.0613 -15.0613 -15.0613 -15.0613 -15.0613 -15.0613 -15.0613 -15.0613 -15.0613 -15.0613 -15.0613 -15.0613 -15.0613 -15.0613 -15.0613 -15.0613 -15.0613 -15.0613 -15.0613 -15.0613 -15.0613 -15.0613 -15.0613 -15.0613 -15.0613 -15.0613 -15.0613 -15.0613 -15.0613 -15.0613 -15.0613 -15.0613 -15.0613 -15.0613 -15.0613 -15.0613 -15.0613 -15.0613 -15.0613 -15.0613 -15.0613 -15.0613 -15.0613 -15.0613 -15.0613 -15.0613 -15.0613 -15.0613 -15.0613 -15.0613 -15.0613 -15.0613 -15.0613 -15.0613 -15.0613
-38.7051 -38.6402 -38.6188 -38.6378 -38.6771 -38.8281 -39.3233 -39.6872 -39.8224 -39.7389 -39.8865 -40.0806 -40.4501 -40.1584 -40.2661 -41.9918 -44.48 -39.1502 -40.2668 -44.9618 -38.8507 -38.4299 -39.7716 -42.9138 -45.5423 -37.0697 -41.3498 -33.3318 -36.4237 -29.7651 -26.2974 -25.2137 -23.7819 -22.5179 -21.8035 -21.1746 -20.8256 -26.3116 -19.6105 -19.1571 -19.3302 -19.0932 -18.3783 -18.0533 -18.7779 -18.2033 -18.1667 -18.5391 -19.2658 -21.0164 -18.6675 -17.7744 -17.3453 -17.4831 -16.9323 -16.3025 -15.873 -15.5676 -15.5014 -15.4577 -15.435 -15.3712 -15.2853 -15.2629 -15.2203 -15.2186 -15.1986 -15.1753 -15.0895 -15.0895 -15.0895 -15.0895 -15.0895 -15.0895 -15.0895 -15.0895 -15.0895 -15.0895 -15.0895 -15.0895 -15.0895 -15.0895 -15.0895 -15.0895 -15.0895 -15.0895 -15.0895 -15.0895 -15.0895 -15.0895 -15.0895 -15.0895 -15.0895 -15.0895 -15.0895 -15.0895 -15.0895 -15.0895 -15.0895 -15.0895 -15.0895 -15.0895 -15.0895 -15.0895 -15.0895 -15.0895 -15.0895 -15.0895 -15.0895 -15.0895 -15.0895 -15.0895 -15.0895 -15.0895 -15.0895 -15.0895 -15.0895 -15.0895 -15.0895 -15.0895 -15.0895 -15.0895 -15.0895 -15.0895 -15.0895 -15.0895 -15.0895 -15.0895 -15.0895 -15.0895 -15.0895 -15.0895 -15.0895 -15.0895 -15.0895 -15.0895 -15.0895 -15.0895 -15.0895 -15.0895 -15.0895 -15.0895 -15.0895 -15.0895 -15.0895 -15.0895 -15.0895 -15.0895 -15.0895 -15.0895 -15.0895 -15.0895 -15.0895 -15.0895 -15.0895 -15.0895 -15.0895 -15.0895 -15.0895 -15.0895 -15.0895 -15.0895 -15.0895 -15.0895 -15.0895 -15.0895 -15.0895 -15.0895 -15.0895 -15.0895 -15.0895 -15.0895 -15.0895 -15.0895 -15.0895 -15.0895 -15.0895 -15.0895 -15.0895 -15.0895 -15.0895 -15.0895 -15.0895 -15.0895 -15.0895 -15.0895 -15.0895 -15.0895 -15.0895 -15.0895 -15.0895 -15.0895 -15.0895 -15.0895 -15.0895 -15.0895 -15.0895 -15.0895 -15.0895 -15.0895 -15.0895 -15.0895 -15.0895 -15.0895 -15.0895 -15.0895 -15.0895 -15.0895 -15.0895 -15.0895 -15.0895 -15.0895 -15.0895 -15.0895 -15.0895 -15.0895 -15.0895 -15.0895 -15.0895 -15.0895 -15.0895 -15.0895 -15.0895 -15.0895 -15.0895 -15.0895 -15.0895 -15.0895 -15.0895 -15.0895 -15.0895 -15.0895 -15.0895 -15.0895 -15.0895 -15.0895 -15.0895 -15.0895 -15.0895 -15.0895 -15.0895 -15.0895 -15.0895 -15.0895 -15.0895 -15.0895 -15.0895 -15.0895 -15.0895 -15.0895 -15.0895 -15.0895 -15.0895 -15.0895 -15.0895 -15.0895 -15.0895 -15.0895 -15.0895 -15.0641 -15.1541 -15.1752 -15.1551 -15.1764 -15.176 -15.176 -15.1963 -15.1981 -15.2409 -15.2626 -15.325 -15.0895 -15.0895 -15.0895 -15.0895 -15.0895 -15.0895 -15.0895 -15.0895 -15.0895 -15.0895 -15.0895 -15.0895 -15.0895 -15.0895 -15.0895 -15.0895 -15.0895 -15.0895 -15.0895 -15.0895 -15.0895 -15.0895 -15.0895 -15.0895 -15.0895 -15.0895 -15.0895 -15.0895 -15.0895 -15.0895 -15.0895 -15.0895 -15.0895 -15.0895 -15.0895 -15.0895 -15.0895 -15.0895 -15.0895 -15.0895 -15.0895 -15.0895 -15.0895 -15.0895 -15.0895 -15.0895 -15.0895 -15.0895 -15.0895 -15.0895 -15.0895 -15.0895 -15.0895 -15.0895 -15.0895 -15.0895 -15.0895 -15.0895 -15.0895 -15.0895 -15.0895 -15.0895 -15.0895 -15.0895 -15.0895
