ncols 378
nrows 32
xllcorner -103.616663615
yllcorner 24.9166666757
cellsize 0.0833333333
NODATA_value -9999
5.71967 5.71146 5.70296 5.69417 5.68507 5.67564 5.6659 5.65581 5.64537 5.63458 5.62341 5.61187 5.59993 5.58759 5.57484 5.56166 5.54804 5.53397 5.51944 5.50443 5.48894 5.47296 5.45646 5.43945 5.4219 5.4038 5.38516 5.36594 5.34615 5.32578 5.30481 5.28324 5.26106 5.23826 5.21484 5.19079 5.16612 5.14082 5.11489 5.08834 5.06118 5.0334 5.00504 4.9761 4.94661 4.91658 4.88606 4.85508 4.82369 4.79193 4.75986 4.72757 4.69512 4.6626 4.63012 4.5978 4.56575 4.53414 4.5031 4.47282 4.44349 4.4153 4.38847 4.36322 4.33978 4.31837 4.29921 4.2825 4.2684 4.25706 4.24856 4.24295 4.24022 4.2403 4.2431 4.24846 4.25622 4.26617 4.27812 4.29186 4.30719 4.32392 4.34186 4.36085 4.38075 4.40142 4.42274 4.44459 4.46689 4.48955 4.51249 4.53565 4.55895 4.58234 4.60578 4.6292 4.65256 4.67582 4.69893 4.72185 4.74455 4.76699 4.78912 4.81092 4.83236 4.8534 4.87401 4.89418 4.91386 4.93304 4.95171 4.96983 4.9874 5.00439 5.0208 5.03662 5.05183 5.06643 5.08042 5.09379 5.10654 5.11868 5.1302 5.14112 5.15143 5.16115 5.17028 5.17884 5.18684 5.19429 5.20121 5.20762 5.21352 5.21894 5.22391 5.22843 5.23253 5.23623 5.23956 5.24253 5.24518 5.24752 5.24957 5.25137 5.25293 5.25428 5.25544 5.25643 5.25729 5.25802 5.25865 5.25919 5.25968 5.26012 5.26053 5.26092 5.26132 5.26172 5.26214 5.26259 5.26307 5.2636 5.26416 5.26476 5.26541 5.26609 5.26681 5.26755 5.26831 5.26909 5.26986 5.27063 5.27137 5.27207 5.27272 5.2733 5.2738 5.2742 5.27449 5.27464 5.27464 5.27448 5.27414 5.2736 5.27285 5.27186 5.27064 5.26916 5.26741 5.26538 5.26307 5.26045 5.25751 5.25427 5.25069 5.24679 5.24255 5.23798 5.23306 5.2278 5.2222 5.21626 5.20998 5.20336 5.1964 5.18912 5.18151 5.17358 5.16534 5.15679 5.14794 5.1388 5.12937 5.11965 5.10966 5.0994 5.08888 5.07809 5.06705 5.05574 5.04418 5.03237 5.02029 5.00795 4.99535 4.98247 4.9693 4.95584 4.94207 4.92798 4.91356 4.89878 4.88363 4.86809 4.85214 4.83576 4.81892 4.80161 4.78381 4.7655 4.74665 4.72726 4.7073 4.68676 4.66564 4.64393 4.62162 4.59872 4.57524 4.5512 4.5266 4.5015 4.47591 4.44988 4.42349 4.39678 4.36984 4.34276 4.31564 4.28861 4.2618 4.23535 4.20943 4.18423 4.15994 4.13676 4.11493 4.09467 4.07623 4.05984 4.04575 4.03417 4.02532 4.01937 4.01646 4.01669 4.02012 4.02674 4.03651 4.04933 4.06506 4.08355 4.10458 4.12796 4.15346 4.18085 4.2099 4.2404 4.27214 4.30491 4.33853 4.37282 4.40763 4.4428 4.4782 4.5137 4.54921 4.58462 4.61984 4.6548 4.68942 4.72366 4.75744 4.79074 4.82351 4.85571 4.88733 4.91833 4.9487 4.97842 5.00748 5.03588 5.0636 5.09065 5.11702 5.14272 5.16775 5.19211 5.21581 5.23886 5.26126 5.28303 5.30417 5.32469 5.34461 5.36394 5.38269 5.40087 5.41849 5.43557 5.45212 5.46816 5.48368 5.49872 5.51328 5.52738 5.54102 5.55422 5.56699 5.57935 5.5913 5.60287 5.61405 5.62487 5.63533 5.64544 5.65522 5.66467 5.67381 5.68265 5.69119 5.69944 5.70743 5.71514 5.7226 5.72981 5.73677 5.74351 5.75002 5.75631 5.76239 5.76827 5.77396 5.77945 5.78477 5.7899 5.79487 5.79967 5.80431 5.8088 5.81315 5.81734 5.82141 5.82533 5.82913 5.83281 5.83636 5.8398
5.72295 5.71486 5.70649 5.69782 5.68885 5.67956 5.66996 5.66002 5.64974 5.63911 5.62811 5.61674 5.60499 5.59284 5.58029 5.56732 5.55392 5.54008 5.52579 5.51104 5.49581 5.4801 5.46389 5.44718 5.42995 5.41219 5.39389 5.37505 5.35564 5.33567 5.31513 5.294 5.27229 5.24999 5.22709 5.20359 5.17949 5.15479 5.1295 5.10363 5.07717 5.05014 5.02256 4.99445 4.96582 4.93671 4.90716 4.87719 4.84686 4.81623 4.78534 4.75428 4.72312 4.69195 4.66087 4.63001 4.59947 4.56941 4.53997 4.51131 4.48362 4.45707 4.43187 4.40821 4.38629 4.36631 4.34846 4.33291 4.3198 4.30924 4.30132 4.29606 4.29346 4.29347 4.296 4.30093 4.30811 4.31738 4.32855 4.34144 4.35589 4.3717 4.38872 4.40678 4.42576 4.44552 4.46593 4.4869 4.50833 4.53013 4.55222 4.57454 4.59702 4.61959 4.64222 4.66484 4.68741 4.70988 4.73222 4.75438 4.77632 4.79802 4.81943 4.84052 4.86126 4.88162 4.90158 4.92111 4.94018 4.95878 4.97688 4.99447 5.01152 5.02804 5.04399 5.05938 5.0742 5.08843 5.10208 5.11514 5.12762 5.1395 5.15081 5.16153 5.17168 5.18126 5.19028 5.19875 5.20669 5.2141 5.22101 5.22742 5.23335 5.23882 5.24385 5.24845 5.25265 5.25646 5.25991 5.26302 5.26581 5.2683 5.27052 5.27248 5.27421 5.27573 5.27706 5.27822 5.27924 5.28013 5.28091 5.28161 5.28223 5.2828 5.28332 5.28382 5.28431 5.28479 5.28527 5.28577 5.28629 5.28682 5.28739 5.28798 5.28859 5.28923 5.28988 5.29055 5.29123 5.2919 5.29257 5.29321 5.29382 5.29439 5.29489 5.29533 5.29567 5.29592 5.29605 5.29604 5.29589 5.29558 5.29508 5.2944 5.29351 5.2924 5.29105 5.28945 5.2876 5.28548 5.28307 5.28038 5.27738 5.27409 5.27047 5.26654 5.26229 5.2577 5.25279 5.24755 5.24197 5.23606 5.22982 5.22325 5.21636 5.20913 5.20159 5.19373 5.18555 5.17707 5.16829 5.1592 5.14983 5.14016 5.13021 5.11998 5.10947 5.09869 5.08763 5.0763 5.06469 5.05281 5.04065 5.0282 5.01546 5.00243 4.98908 4.97542 4.96143 4.94709 4.93239 4.91732 4.90185 4.88597 4.86967 4.85291 4.83569 4.81799 4.79977 4.78104 4.76177 4.74194 4.72156 4.70059 4.67905 4.65693 4.63423 4.61095 4.58712 4.56274 4.53784 4.51246 4.48664 4.46043 4.43389 4.40708 4.3801 4.35303 4.32599 4.2991 4.27249 4.2463 4.22071 4.19589 4.17203 4.14934 4.12802 4.1083 4.0904 4.07454 4.06094 4.0498 4.0413 4.0356 4.03282 4.03306 4.03636 4.04271 4.05208 4.06439 4.07952 4.09731 4.1176 4.14019 4.16488 4.19146 4.21972 4.24944 4.28044 4.31251 4.34547 4.37914 4.41338 4.44803 4.48296 4.51804 4.55317 4.58823 4.62315 4.65784 4.69223 4.72626 4.75987 4.79302 4.82565 4.85775 4.88927 4.9202 4.95051 4.98018 5.0092 5.03757 5.06528 5.09232 5.11868 5.14438 5.16941 5.19378 5.2175 5.24056 5.26298 5.28476 5.30592 5.32647 5.34641 5.36575 5.38452 5.40272 5.42037 5.43747 5.45403 5.47009 5.48563 5.50068 5.51526 5.52937 5.54302 5.55623 5.56901 5.58138 5.59334 5.60491 5.6161 5.62692 5.63738 5.64749 5.65727 5.66672 5.67586 5.68469 5.69322 5.70147 5.70945 5.71715 5.7246 5.7318 5.73875 5.74547 5.75197 5.75825 5.76432 5.77018 5.77585 5.78132 5.78662 5.79174 5.79668 5.80147 5.80609 5.81056 5.81488 5.81905 5.82309 5.827 5.83077 5.83443 5.83796 5.84137
5.72628 5.71831 5.71006 5.70152 5.69268 5.68354 5.67408 5.6643 5.65418 5.64371 5.63289 5.62171 5.61014 5.5982 5.58585 5.5731 5.55993 5.54633 5.53229 5.5178 5.50285 5.48742 5.47152 5.45512 5.43822 5.42081 5.40287 5.38441 5.3654 5.34585 5.32575 5.30509 5.28387 5.26208 5.23971 5.21678 5.19328 5.16921 5.14458 5.11939 5.09366 5.0674 5.04063 5.01337 4.98563 4.95746 4.92889 4.89996 4.87071 4.84121 4.81151 4.78169 4.75182 4.722 4.69232 4.6629 4.63385 4.60531 4.57742 4.55033 4.52421 4.49923 4.47557 4.4534 4.43291 4.41426 4.39762 4.38314 4.37093 4.3611 4.3537 4.34877 4.34631 4.34626 4.34855 4.35308 4.35973 4.36835 4.37878 4.39087 4.40446 4.41938 4.43549 4.45264 4.47069 4.48953 4.50904 4.52911 4.54965 4.57057 4.5918 4.61326 4.6349 4.65665 4.67845 4.70027 4.72204 4.74373 4.76529 4.78668 4.80788 4.82884 4.84952 4.86991 4.88996 4.90966 4.92897 4.94787 4.96633 4.98435 5.00189 5.01894 5.03549 5.05153 5.06703 5.082 5.09642 5.11028 5.12359 5.13634 5.14853 5.16016 5.17124 5.18176 5.19173 5.20116 5.21006 5.21843 5.22629 5.23366 5.24053 5.24693 5.25287 5.25837 5.26344 5.26811 5.27239 5.27629 5.27985 5.28307 5.28599 5.28861 5.29096 5.29307 5.29495 5.29661 5.2981 5.29941 5.30057 5.3016 5.30253 5.30335 5.3041 5.30478 5.30541 5.306 5.30656 5.30711 5.30765 5.30819 5.30873 5.30929 5.30985 5.31042 5.31101 5.3116 5.3122 5.3128 5.3134 5.31398 5.31454 5.31507 5.31557 5.316 5.31638 5.31667 5.31688 5.31698 5.31697 5.31682 5.31652 5.31607 5.31544 5.31462 5.3136 5.31236 5.3109 5.3092 5.30725 5.30504 5.30255 5.29979 5.29673 5.29339 5.28973 5.28577 5.2815 5.27691 5.272 5.26677 5.26121 5.25533 5.24912 5.24259 5.23574 5.22857 5.22108 5.21327 5.20515 5.19673 5.18799 5.17896 5.16963 5.16 5.15007 5.13986 5.12936 5.11857 5.10749 5.09612 5.08446 5.0725 5.06025 5.04769 5.03482 5.02163 5.00811 4.99424 4.98003 4.96545 4.95049 4.93513 4.91936 4.90316 4.88651 4.8694 4.85181 4.83371 4.81511 4.79597 4.77629 4.75605 4.73525 4.71388 4.69193 4.66941 4.64632 4.62267 4.59848 4.57377 4.54857 4.52291 4.49685 4.47043 4.44372 4.41679 4.38973 4.36264 4.33562 4.30881 4.28233 4.25633 4.23099 4.20646 4.18294 4.16062 4.13971 4.12041 4.10294 4.08749 4.07427 4.06347 4.05524 4.04973 4.04706 4.04729 4.05047 4.0566 4.06565 4.07754 4.09217 4.10939 4.12906 4.151 4.17502 4.20092 4.2285 4.25757 4.28793 4.3194 4.35179 4.38495 4.4187 4.4529 4.48742 4.52213 4.55692 4.59169 4.62635 4.6608 4.69499 4.72884 4.76229 4.7953 4.82782 4.85982 4.89126 4.92212 4.95238 4.98201 5.011 5.03934 5.06703 5.09405 5.12042 5.14612 5.17115 5.19553 5.21925 5.24232 5.26475 5.28655 5.30773 5.32829 5.34824 5.36761 5.38639 5.40461 5.42227 5.43938 5.45597 5.47203 5.48759 5.50266 5.51724 5.53136 5.54502 5.55824 5.57103 5.5834 5.59537 5.60694 5.61813 5.62895 5.63941 5.64952 5.65929 5.66874 5.67787 5.6867 5.69522 5.70347 5.71143 5.71912 5.72656 5.73375 5.74069 5.7474 5.75388 5.76014 5.76619 5.77204 5.77769 5.78315 5.78842 5.79352 5.79845 5.80321 5.80781 5.81226 5.81656 5.82071 5.82473 5.82861 5.83237 5.836 5.8395 5.8429
5.72964 5.72179 5.71367 5.70527 5.69657 5.68757 5.67827 5.66864 5.65869 5.64839 5.63776 5.62676 5.61539 5.60365 5.59152 5.579 5.56606 5.55271 5.53893 5.52471 5.51004 5.49491 5.47932 5.46325 5.44669 5.42963 5.41208 5.39401 5.37542 5.3563 5.33666 5.31647 5.29575 5.27449 5.25268 5.23033 5.20744 5.18402 5.16006 5.13559 5.11061 5.08513 5.05918 5.03278 5.00596 4.97874 4.95117 4.92328 4.89513 4.86677 4.83826 4.80967 4.78109 4.7526 4.7243 4.69629 4.66869 4.64163 4.61524 4.58966 4.56505 4.54156 4.51935 4.49859 4.47942 4.46201 4.44649 4.43299 4.42161 4.41244 4.40553 4.40091 4.39857 4.39847 4.40055 4.40472 4.41088 4.41889 4.42864 4.43996 4.45273 4.46679 4.48202 4.49826 4.5154 4.53333 4.55193 4.57109 4.59074 4.61078 4.63114 4.65175 4.67254 4.69345 4.71443 4.73543 4.7564 4.77731 4.79809 4.81873 4.83918 4.8594 4.87937 4.89906 4.91843 4.93746 4.95613 4.97441 4.99228 5.00971 5.02671 5.04323 5.05928 5.07484 5.08989 5.10443 5.11846 5.13195 5.14492 5.15736 5.16926 5.18063 5.19147 5.20178 5.21157 5.22084 5.2296 5.23787 5.24564 5.25294 5.25977 5.26614 5.27208 5.27759 5.2827 5.28741 5.29174 5.29572 5.29936 5.30269 5.3057 5.30844 5.31091 5.31314 5.31515 5.31695 5.31856 5.32 5.3213 5.32245 5.3235 5.32444 5.32529 5.32607 5.32679 5.32747 5.3281 5.32871 5.3293 5.32987 5.33044 5.331 5.33156 5.33212 5.33268 5.33323 5.33378 5.33432 5.33484 5.33534 5.3358 5.33623 5.33661 5.33694 5.33719 5.33736 5.33743 5.3374 5.33726 5.33697 5.33655 5.33596 5.3352 5.33426 5.33312 5.33178 5.33021 5.32841 5.32636 5.32407 5.32151 5.31868 5.31557 5.31217 5.30848 5.30449 5.3002 5.2956 5.29069 5.28546 5.27992 5.27406 5.26788 5.26138 5.25457 5.24744 5.23999 5.23223 5.22415 5.21577 5.20708 5.19808 5.18878 5.17918 5.16927 5.15907 5.14856 5.13775 5.12664 5.11523 5.10351 5.09147 5.07912 5.06645 5.05344 5.0401 5.0264 5.01235 4.99792 4.9831 4.96788 4.95225 4.93618 4.91967 4.90269 4.88524 4.86728 4.84882 4.82983 4.8103 4.79023 4.76959 4.74838 4.72661 4.70426 4.68135 4.65788 4.63386 4.60931 4.58426 4.55874 4.5328 4.50647 4.47981 4.4529 4.42582 4.39864 4.37147 4.34442 4.31762 4.2912 4.26531 4.24011 4.21578 4.19249 4.17044 4.14982 4.13083 4.11366 4.09852 4.08558 4.07502 4.06699 4.06161 4.059 4.05922 4.0623 4.06826 4.07704 4.0886 4.10283 4.1196 4.13878 4.1602 4.18367 4.20903 4.23607 4.26461 4.29446 4.32544 4.35737 4.3901 4.42345 4.45728 4.49147 4.52587 4.56039 4.59492 4.62935 4.66361 4.69763 4.73133 4.76466 4.79756 4.82998 4.8619 4.89328 4.92408 4.95429 4.98388 5.01285 5.04117 5.06884 5.09586 5.12222 5.14792 5.17295 5.19734 5.22106 5.24415 5.26659 5.2884 5.30959 5.33016 5.35013 5.36951 5.38831 5.40653 5.42421 5.44133 5.45793 5.474 5.48957 5.50464 5.51923 5.53336 5.54702 5.56025 5.57304 5.58541 5.59738 5.60895 5.62014 5.63096 5.64142 5.65152 5.66129 5.67073 5.67986 5.68867 5.69719 5.70542 5.71338 5.72106 5.72848 5.73566 5.74258 5.74928 5.75574 5.76199 5.76802 5.77385 5.77949 5.78493 5.79018 5.79526 5.80017 5.80491 5.80949 5.81392 5.8182 5.82233 5.82632 5.83018 5.83391 5.83752 5.84101 5.84438
5.73304 5.72531 5.71732 5.70906 5.7005 5.69166 5.68251 5.67305 5.66326 5.65315 5.64269 5.63189 5.62073 5.6092 5.5973 5.585 5.57231 5.55921 5.5457 5.53176 5.51738 5.50256 5.48728 5.47155 5.45534 5.43866 5.42149 5.40382 5.38566 5.36699 5.34781 5.32812 5.30792 5.2872 5.26596 5.24421 5.22195 5.19918 5.17592 5.15217 5.12795 5.10327 5.07816 5.05263 5.02672 5.00047 4.9739 4.94706 4.92 4.89277 4.86545 4.83809 4.81078 4.7836 4.75665 4.73002 4.70383 4.6782 4.65325 4.62912 4.60594 4.58386 4.56302 4.54356 4.52564 4.50937 4.49488 4.48229 4.47168 4.46312 4.45666 4.45232 4.4501 4.44995 4.45184 4.45569 4.46139 4.46885 4.47795 4.48855 4.50054 4.51378 4.52814 4.54351 4.55976 4.57679 4.59448 4.61276 4.63151 4.65068 4.67016 4.68991 4.70985 4.72993 4.75009 4.77028 4.79046 4.81057 4.83059 4.85047 4.87018 4.88968 4.90894 4.92793 4.94663 4.96501 4.98304 5.00071 5.01798 5.03485 5.0513 5.0673 5.08285 5.09794 5.11254 5.12666 5.14029 5.15342 5.16604 5.17816 5.18977 5.20088 5.21148 5.22157 5.23117 5.24028 5.2489 5.25704 5.26472 5.27194 5.27871 5.28505 5.29096 5.29647 5.30159 5.30633 5.31071 5.31475 5.31846 5.32186 5.32496 5.3278 5.33037 5.33271 5.33482 5.33674 5.33846 5.34002 5.34142 5.34269 5.34384 5.34488 5.34583 5.3467 5.3475 5.34825 5.34895 5.34961 5.35024 5.35084 5.35143 5.352 5.35255 5.35309 5.35362 5.35414 5.35464 5.35512 5.35557 5.35599 5.35637 5.3567 5.35698 5.3572 5.35734 5.35739 5.35735 5.3572 5.35693 5.35652 5.35597 5.35527 5.35439 5.35334 5.35209 5.35063 5.34897 5.34707 5.34494 5.34257 5.33994 5.33705 5.33388 5.33044 5.32671 5.3227 5.31838 5.31377 5.30886 5.30363 5.2981 5.29225 5.2861 5.27963 5.27284 5.26574 5.25833 5.25061 5.24257 5.23422 5.22556 5.21659 5.20731 5.19772 5.18782 5.17761 5.1671 5.15627 5.14512 5.13365 5.12187 5.10975 5.0973 5.08451 5.07137 5.05787 5.044 5.02976 5.01511 5.00007 4.9846 4.9687 4.95235 4.93553 4.91823 4.90044 4.88215 4.86332 4.84396 4.82406 4.80359 4.78256 4.76096 4.73879 4.71605 4.69275 4.66889 4.6445 4.61959 4.59419 4.56834 4.54208 4.51546 4.48854 4.4614 4.4341 4.40675 4.37944 4.35229 4.32543 4.29898 4.27311 4.24797 4.22372 4.20056 4.17865 4.1582 4.1394 4.12243 4.10747 4.09472 4.08431 4.0764 4.07111 4.06853 4.06873 4.07173 4.07754 4.08613 4.09744 4.11137 4.12781 4.14662 4.16764 4.19072 4.21566 4.24229 4.27043 4.2999 4.33051 4.36209 4.39448 4.42753 4.46109 4.49502 4.52919 4.5635 4.59784 4.63211 4.66622 4.70011 4.7337 4.76693 4.79975 4.8321 4.86396 4.89529 4.92605 4.95623 4.9858 5.01474 5.04305 5.07072 5.09773 5.12408 5.14978 5.17482 5.19921 5.22295 5.24604 5.26849 5.29031 5.3115 5.33209 5.35207 5.37145 5.39026 5.4085 5.42618 5.44331 5.45991 5.47599 5.49157 5.50665 5.52124 5.53537 5.54904 5.56226 5.57505 5.58743 5.59939 5.61096 5.62215 5.63296 5.64341 5.65351 5.66327 5.6727 5.68182 5.69063 5.69913 5.70735 5.71529 5.72296 5.73037 5.73753 5.74444 5.75112 5.75757 5.7638 5.76982 5.77563 5.78124 5.78667 5.7919 5.79696 5.80185 5.80657 5.81113 5.81553 5.81979 5.8239 5.82787 5.83171 5.83542 5.839 5.84247 5.84581
5.73646 5.72887 5.72102 5.71289 5.70449 5.69579 5.6868 5.67751 5.6679 5.65797 5.64771 5.6371 5.62615 5.61484 5.60316 5.5911 5.57866 5.56583 5.55258 5.53893 5.52485 5.51035 5.4954 5.48001 5.46416 5.44786 5.43108 5.41384 5.39611 5.3779 5.3592 5.34001 5.32034 5.30017 5.27951 5.25837 5.23674 5.21465 5.19208 5.16907 5.14562 5.12174 5.09747 5.07283 5.04785 5.02255 4.99698 4.97119 4.94522 4.91912 4.89297 4.86682 4.84076 4.81486 4.78922 4.76394 4.73911 4.71485 4.69128 4.66853 4.6467 4.62595 4.6064 4.58817 4.5714 4.55619 4.54266 4.53091 4.521 4.51301 4.50696 4.50289 4.50077 4.5006 4.50232 4.50586 4.51115 4.51809 4.52658 4.5365 4.54775 4.5602 4.57374 4.58826 4.60365 4.6198 4.63661 4.654 4.67188 4.69017 4.7088 4.72769 4.74679 4.76604 4.78538 4.80477 4.82415 4.84349 4.86274 4.88187 4.90084 4.91963 4.93819 4.9565 4.97453 4.99226 5.00967 5.02673 5.04342 5.05973 5.07564 5.09113 5.10619 5.1208 5.13497 5.14867 5.1619 5.17466 5.18694 5.19874 5.21006 5.22089 5.23125 5.24112 5.25053 5.25946 5.26793 5.27594 5.28351 5.29064 5.29734 5.30363 5.30952 5.31501 5.32013 5.32488 5.32929 5.33337 5.33713 5.34059 5.34377 5.34668 5.34934 5.35177 5.35398 5.35599 5.35781 5.35947 5.36097 5.36233 5.36358 5.3647 5.36574 5.36668 5.36755 5.36836 5.36911 5.36982 5.37048 5.37111 5.37171 5.37229 5.37284 5.37336 5.37387 5.37435 5.3748 5.37522 5.37561 5.37596 5.37626 5.37651 5.37669 5.37681 5.37684 5.37679 5.37664 5.37637 5.37599 5.37547 5.37481 5.37399 5.37301 5.37185 5.3705 5.36895 5.36719 5.36521 5.363 5.36055 5.35786 5.3549 5.35169 5.3482 5.34444 5.34039 5.33606 5.33143 5.32651 5.32129 5.31576 5.30993 5.30378 5.29733 5.29057 5.2835 5.27611 5.26842 5.26041 5.25208 5.24344 5.23449 5.22523 5.21564 5.20575 5.19553 5.18499 5.17413 5.16294 5.15142 5.13956 5.12736 5.11481 5.1019 5.08863 5.07498 5.06094 5.0465 5.03165 5.01638 5.00067 4.98451 4.96788 4.95077 4.93317 4.91505 4.89642 4.87724 4.85752 4.83725 4.81641 4.79499 4.773 4.75044 4.72731 4.70362 4.67937 4.65459 4.62931 4.60355 4.57734 4.55074 4.5238 4.49658 4.46915 4.4416 4.41402 4.38651 4.35918 4.33217 4.30561 4.27966 4.25446 4.2302 4.20704 4.18516 4.16476 4.14603 4.12913 4.11426 4.10159 4.09125 4.0834 4.07814 4.07556 4.07572 4.07866 4.08437 4.09282 4.10396 4.11769 4.1339 4.15246 4.17323 4.19603 4.2207 4.24707 4.27494 4.30414 4.33451 4.36586 4.39803 4.43087 4.46424 4.498 4.53203 4.5662 4.60041 4.63457 4.6686 4.7024 4.73592 4.76908 4.80185 4.83417 4.86599 4.89729 4.92803 4.95818 4.98774 5.01668 5.04498 5.07264 5.09965 5.12601 5.15171 5.17676 5.20115 5.22489 5.24799 5.27045 5.29227 5.31348 5.33407 5.35406 5.37345 5.39226 5.41051 5.42819 5.44533 5.46194 5.47802 5.49359 5.50867 5.52327 5.5374 5.55106 5.56429 5.57708 5.58944 5.6014 5.61297 5.62415 5.63495 5.64539 5.65549 5.66524 5.67466 5.68376 5.69256 5.70105 5.70926 5.71719 5.72484 5.73224 5.73938 5.74627 5.75293 5.75937 5.76558 5.77158 5.77737 5.78296 5.78837 5.79358 5.79862 5.80349 5.80819 5.81273 5.81711 5.82134 5.82543 5.82938 5.8332 5.83689 5.84045 5.84389 5.84721
5.73992 5.73246 5.72475 5.71677 5.70851 5.69997 5.69115 5.68202 5.67259 5.66285 5.65278 5.64238 5.63165 5.62056 5.60911 5.5973 5.58511 5.57254 5.55958 5.54622 5.53245 5.51826 5.50366 5.48862 5.47314 5.45722 5.44085 5.42403 5.40674 5.389 5.37079 5.35211 5.33297 5.31337 5.2933 5.27277 5.25179 5.23037 5.20852 5.18624 5.16356 5.1405 5.11708 5.09332 5.06925 5.04492 5.02035 4.99559 4.97069 4.94571 4.92071 4.89575 4.8709 4.84626 4.82189 4.7979 4.77438 4.75144 4.72919 4.70774 4.6872 4.6677 4.64936 4.63228 4.61657 4.60235 4.58971 4.57873 4.56948 4.562 4.55634 4.55251 4.5505 4.5503 4.55186 4.55513 4.56004 4.5665 4.57442 4.58371 4.59425 4.60596 4.61871 4.63241 4.64696 4.66226 4.67822 4.69475 4.71177 4.7292 4.74698 4.76503 4.7833 4.80172 4.82026 4.83884 4.85744 4.87601 4.89451 4.9129 4.93115 4.94922 4.96709 4.98473 5.00211 5.0192 5.03599 5.05246 5.06858 5.08433 5.0997 5.11468 5.12926 5.14341 5.15713 5.17042 5.18326 5.19566 5.20759 5.21907 5.2301 5.24066 5.25077 5.26042 5.26962 5.27837 5.28668 5.29456 5.30201 5.30904 5.31566 5.32189 5.32773 5.3332 5.3383 5.34306 5.34748 5.35159 5.35538 5.35889 5.36213 5.3651 5.36783 5.37033 5.37262 5.37471 5.37662 5.37836 5.37995 5.38139 5.38271 5.38392 5.38502 5.38603 5.38697 5.38783 5.38862 5.38937 5.39006 5.39071 5.39132 5.3919 5.39244 5.39295 5.39343 5.39388 5.39428 5.39465 5.39498 5.39526 5.39549 5.39566 5.39576 5.39578 5.39572 5.39557 5.39531 5.39495 5.39446 5.39383 5.39307 5.39215 5.39107 5.38981 5.38836 5.38672 5.38488 5.38282 5.38053 5.37802 5.37526 5.37225 5.36899 5.36546 5.36166 5.35759 5.35323 5.34859 5.34366 5.33843 5.33291 5.32708 5.32095 5.31451 5.30777 5.30072 5.29335 5.28567 5.27768 5.26938 5.26075 5.25181 5.24255 5.23297 5.22306 5.21283 5.20227 5.19137 5.18013 5.16855 5.15662 5.14434 5.13168 5.11866 5.10525 5.09144 5.07724 5.06262 5.04757 5.03207 5.01613 4.99971 4.98282 4.96542 4.94752 4.92909 4.91012 4.89061 4.87054 4.8499 4.82869 4.8069 4.78452 4.76157 4.73804 4.71395 4.68932 4.66415 4.63847 4.61232 4.58574 4.55878 4.53148 4.50391 4.47616 4.44829 4.42041 4.39263 4.36505 4.3378 4.31104 4.2849 4.25954 4.23514 4.21186 4.1899 4.16943 4.15064 4.13371 4.11882 4.10612 4.09577 4.0879 4.08262 4.08002 4.08015 4.08303 4.08868 4.09705 4.10809 4.12172 4.13781 4.15625 4.17688 4.19955 4.22409 4.25031 4.27805 4.30713 4.33737 4.36861 4.40068 4.43342 4.46671 4.50039 4.53434 4.56845 4.60261 4.63672 4.6707 4.70447 4.73796 4.77111 4.80385 4.83615 4.86797 4.89926 4.92999 4.96015 4.98971 5.01864 5.04695 5.07462 5.10163 5.128 5.15371 5.17876 5.20316 5.22691 5.25001 5.27247 5.29431 5.31552 5.33611 5.35611 5.3755 5.39432 5.41256 5.43025 5.44739 5.464 5.48008 5.49565 5.51073 5.52532 5.53944 5.55311 5.56632 5.57911 5.59147 5.60342 5.61498 5.62614 5.63694 5.64737 5.65745 5.66719 5.6766 5.68569 5.69447 5.70295 5.71114 5.71905 5.72669 5.73407 5.7412 5.74808 5.75472 5.76113 5.76732 5.7733 5.77908 5.78465 5.79003 5.79523 5.80025 5.80509 5.80977 5.81429 5.81865 5.82286 5.82693 5.83086 5.83465 5.83832 5.84185 5.84527 5.84857
5.74341 5.73609 5.72851 5.72067 5.71257 5.7042 5.69554 5.68659 5.67734 5.66779 5.65792 5.64773 5.63721 5.62635 5.61514 5.60358 5.59165 5.57935 5.56668 5.55361 5.54016 5.5263 5.51203 5.49735 5.48225 5.46672 5.45076 5.43437 5.41754 5.40027 5.38255 5.3644 5.3458 5.32676 5.30728 5.28738 5.26705 5.24631 5.22517 5.20363 5.18173 5.15948 5.1369 5.11402 5.09087 5.06748 5.0439 5.02017 4.99633 4.97244 4.94857 4.92476 4.9011 4.87767 4.85453 4.83179 4.80953 4.78785 4.76685 4.74663 4.72731 4.70899 4.69177 4.67576 4.66106 4.64775 4.63593 4.62566 4.61701 4.61002 4.60471 4.60111 4.59921 4.59898 4.6004 4.60342 4.60797 4.61399 4.62138 4.63006 4.63995 4.65095 4.66295 4.67587 4.68962 4.70409 4.71922 4.73491 4.75109 4.76769 4.78463 4.80186 4.81931 4.83693 4.85467 4.87247 4.8903 4.90811 4.92586 4.94352 4.96106 4.97844 4.99562 5.0126 5.02933 5.0458 5.06199 5.07786 5.09341 5.10862 5.12347 5.13795 5.15204 5.16574 5.17903 5.1919 5.20436 5.21639 5.22798 5.23914 5.24987 5.26016 5.27002 5.27944 5.28843 5.297 5.30514 5.31287 5.3202 5.32712 5.33366 5.33981 5.3456 5.35103 5.35611 5.36085 5.36528 5.36939 5.37322 5.37676 5.38003 5.38306 5.38584 5.38841 5.39076 5.39292 5.3949 5.39671 5.39836 5.39988 5.40127 5.40254 5.4037 5.40477 5.40576 5.40666 5.4075 5.40827 5.40899 5.40966 5.41028 5.41085 5.41139 5.41188 5.41233 5.41274 5.41311 5.41343 5.41371 5.41392 5.41408 5.41417 5.41419 5.41413 5.41398 5.41374 5.41339 5.41293 5.41234 5.41163 5.41076 5.40975 5.40857 5.40722 5.40569 5.40397 5.40204 5.39991 5.39756 5.39498 5.39216 5.3891 5.38579 5.38222 5.37839 5.37429 5.36991 5.36525 5.36031 5.35508 5.34955 5.34373 5.3376 5.33118 5.32444 5.3174 5.31005 5.30239 5.29441 5.28612 5.2775 5.26857 5.25931 5.24972 5.2398 5.22954 5.21895 5.20801 5.19673 5.18508 5.17308 5.1607 5.14794 5.1348 5.12126 5.10731 5.09293 5.07813 5.06288 5.04718 5.031 5.01434 4.99718 4.97951 4.96132 4.94258 4.9233 4.90345 4.88304 4.86204 4.84046 4.8183 4.79554 4.7722 4.74828 4.72379 4.69874 4.67317 4.64709 4.62054 4.59355 4.56619 4.53849 4.51054 4.4824 4.45417 4.42593 4.39779 4.36987 4.34231 4.31524 4.2888 4.26318 4.23852 4.21501 4.19284 4.17217 4.15321 4.13613 4.1211 4.10828 4.09784 4.08988 4.08454 4.08188 4.08196 4.08481 4.09043 4.09878 4.10981 4.12342 4.13951 4.15794 4.17857 4.20124 4.22578 4.252 4.27975 4.30883 4.33908 4.37032 4.4024 4.43516 4.46845 4.50214 4.53611 4.57023 4.6044 4.63853 4.67253 4.70632 4.73982 4.77298 4.80575 4.83806 4.86989 4.9012 4.93195 4.96212 4.99169 5.02065 5.04897 5.07664 5.10367 5.13005 5.15577 5.18083 5.20524 5.22899 5.2521 5.27457 5.29641 5.31762 5.33822 5.35822 5.37762 5.39643 5.41468 5.43236 5.4495 5.4661 5.48218 5.49775 5.51282 5.5274 5.54152 5.55517 5.56838 5.58116 5.59351 5.60545 5.61699 5.62815 5.63893 5.64935 5.65942 5.66914 5.67853 5.68761 5.69637 5.70484 5.71301 5.72091 5.72853 5.73589 5.74299 5.74985 5.75648 5.76287 5.76904 5.775 5.78075 5.78631 5.79167 5.79684 5.80184 5.80666 5.81132 5.81582 5.82016 5.82435 5.82839 5.8323 5.83607 5.83971 5.84323 5.84662 5.8499
5.74692 5.73973 5.7323 5.72462 5.71667 5.70846 5.69997 5.6912 5.68214 5.67278 5.66311 5.65313 5.64283 5.6322 5.62124 5.60993 5.59827 5.58625 5.57386 5.5611 5.54796 5.53443 5.52052 5.5062 5.49148 5.47635 5.46081 5.44485 5.42847 5.41168 5.39446 5.37683 5.35878 5.34031 5.32143 5.30215 5.28248 5.26242 5.24199 5.2212 5.20007 5.17862 5.15688 5.13487 5.11263 5.09018 5.06757 5.04485 5.02205 4.99923 4.97645 4.95377 4.93126 4.90899 4.88704 4.86549 4.84443 4.82395 4.80414 4.7851 4.76692 4.7497 4.73354 4.71853 4.70476 4.6923 4.68124 4.67164 4.66354 4.65699 4.65202 4.64863 4.64682 4.64658 4.64787 4.65066 4.65488 4.66048 4.66738 4.67551 4.68477 4.6951 4.70639 4.71857 4.73154 4.74523 4.75955 4.77444 4.7898 4.80559 4.82172 4.83814 4.85479 4.87162 4.88857 4.9056 4.92267 4.93974 4.95676 4.97371 4.99054 5.00724 5.02376 5.04008 5.05618 5.07203 5.08762 5.10292 5.11792 5.13259 5.14692 5.16091 5.17453 5.18777 5.20063 5.2131 5.22517 5.23683 5.24809 5.25893 5.26936 5.27938 5.28898 5.29817 5.30695 5.31533 5.3233 5.33088 5.33808 5.34489 5.35133 5.3574 5.36312 5.3685 5.37354 5.37827 5.38268 5.3868 5.39063 5.39419 5.3975 5.40056 5.40339 5.406 5.4084 5.41062 5.41265 5.41452 5.41624 5.41781 5.41926 5.42058 5.4218 5.42291 5.42394 5.42488 5.42575 5.42655 5.42729 5.42797 5.42859 5.42917 5.42969 5.43017 5.4306 5.43098 5.4313 5.43158 5.4318 5.43196 5.43205 5.43207 5.43202 5.43188 5.43165 5.43132 5.43089 5.43034 5.42966 5.42885 5.4279 5.4268 5.42554 5.42411 5.42249 5.42069 5.4187 5.41649 5.41407 5.41143 5.40856 5.40545 5.4021 5.39849 5.39463 5.3905 5.3861 5.38142 5.37647 5.37123 5.3657 5.35987 5.35375 5.34733 5.34061 5.33358 5.32624 5.31858 5.31061 5.30232 5.29371 5.28478 5.27551 5.26591 5.25597 5.24569 5.23506 5.22408 5.21274 5.20103 5.18895 5.17648 5.16362 5.15036 5.13669 5.12259 5.10806 5.09308 5.07764 5.06173 5.04533 5.02843 5.01102 4.99308 4.9746 4.95557 4.93597 4.9158 4.89505 4.8737 4.85176 4.82922 4.80608 4.78235 4.75803 4.73314 4.70768 4.68169 4.65518 4.6282 4.60079 4.57299 4.54487 4.51648 4.48791 4.45924 4.43057 4.40201 4.37367 4.34569 4.31821 4.29139 4.26537 4.24035 4.21648 4.19397 4.17299 4.15373 4.13637 4.1211 4.10807 4.09744 4.08934 4.08387 4.08113 4.08116 4.08399 4.08962 4.09801 4.1091 4.1228 4.13899 4.15754 4.17829 4.20109 4.22577 4.25213 4.28002 4.30924 4.33962 4.37099 4.40319 4.43607 4.46947 4.50327 4.53733 4.57155 4.60581 4.64001 4.67408 4.70794 4.7415 4.77472 4.80754 4.8399 4.87177 4.90312 4.93391 4.96411 4.99371 5.02269 5.05103 5.07873 5.10578 5.13217 5.1579 5.18297 5.20739 5.23115 5.25427 5.27674 5.29859 5.3198 5.3404 5.36039 5.37979 5.3986 5.41684 5.43452 5.45166 5.46825 5.48432 5.49988 5.51494 5.52952 5.54362 5.55727 5.57046 5.58322 5.59556 5.60749 5.61902 5.63016 5.64093 5.65133 5.66138 5.67109 5.68046 5.68952 5.69827 5.70671 5.71487 5.72274 5.73034 5.73768 5.74477 5.75161 5.75821 5.76458 5.77074 5.77667 5.78241 5.78794 5.79328 5.79843 5.80341 5.80821 5.81284 5.81731 5.82163 5.8258 5.82982 5.83371 5.83745 5.84107 5.84457 5.84794 5.8512
5.75045 5.74341 5.73612 5.72859 5.7208 5.71275 5.70444 5.69584 5.68697 5.67781 5.66835 5.65859 5.64851 5.63812 5.6274 5.61635 5.60495 5.59321 5.58112 5.56867 5.55585 5.54266 5.52909 5.51514 5.5008 5.48608 5.47096 5.45544 5.43952 5.42321 5.4065 5.38939 5.37188 5.35399 5.33571 5.31706 5.29803 5.27865 5.25893 5.23888 5.21852 5.19787 5.17696 5.15582 5.13446 5.11294 5.09129 5.06954 5.04776 5.02598 5.00427 4.98268 4.96128 4.94014 4.91932 4.89892 4.879 4.85966 4.84098 4.82304 4.80594 4.78976 4.77459 4.76051 4.7476 4.73594 4.72558 4.71659 4.70901 4.70287 4.6982 4.69501 4.6933 4.69304 4.69422 4.69679 4.70071 4.70593 4.71237 4.71997 4.72865 4.73834 4.74896 4.76043 4.77267 4.78561 4.79916 4.81326 4.82784 4.84284 4.85818 4.87381 4.88968 4.90574 4.92193 4.93821 4.95454 4.97088 4.98719 5.00343 5.01958 5.0356 5.05146 5.06715 5.08263 5.09788 5.11288 5.12762 5.14206 5.15621 5.17004 5.18353 5.19669 5.20949 5.22192 5.23399 5.24568 5.25698 5.2679 5.27843 5.28856 5.2983 5.30765 5.31661 5.32518 5.33336 5.34116 5.34858 5.35564 5.36232 5.36866 5.37464 5.38029 5.38561 5.39061 5.3953 5.39969 5.4038 5.40763 5.4112 5.41452 5.41761 5.42047 5.42311 5.42556 5.42782 5.4299 5.43182 5.43358 5.4352 5.43669 5.43806 5.43932 5.44048 5.44154 5.44251 5.44341 5.44423 5.44498 5.44567 5.4463 5.44686 5.44738 5.44784 5.44824 5.44859 5.44888 5.44911 5.44928 5.44938 5.44942 5.44938 5.44925 5.44904 5.44874 5.44833 5.44782 5.44718 5.44643 5.44554 5.4445 5.44332 5.44198 5.44047 5.43878 5.43691 5.43484 5.43257 5.4301 5.4274 5.42448 5.42132 5.41792 5.41428 5.41038 5.40623 5.40181 5.39711 5.39214 5.38689 5.38136 5.37553 5.36941 5.363 5.35628 5.34925 5.34191 5.33426 5.3263 5.31801 5.3094 5.30045 5.29118 5.28156 5.2716 5.26129 5.25063 5.2396 5.2282 5.21643 5.20426 5.19171 5.17875 5.16537 5.15157 5.13733 5.12264 5.10749 5.09187 5.07575 5.05914 5.04201 5.02435 5.00615 4.98739 4.96807 4.94817 4.92768 4.9066 4.88491 4.86261 4.83971 4.81619 4.79207 4.76734 4.74204 4.71616 4.68973 4.66279 4.63536 4.60749 4.57923 4.55063 4.52176 4.49271 4.46355 4.43438 4.40532 4.37648 4.34799 4.32001 4.29268 4.26617 4.24065 4.21631 4.19333 4.1719 4.15222 4.13448 4.11885 4.10551 4.09461 4.08629 4.08065 4.0778 4.07777 4.0806 4.08628 4.09477 4.106 4.11987 4.13627 4.15506 4.17607 4.19914 4.22409 4.25073 4.27889 4.30838 4.33902 4.37064 4.40308 4.43618 4.4698 4.50379 4.53804 4.57242 4.60683 4.64118 4.67538 4.70935 4.74302 4.77633 4.80924 4.84168 4.87362 4.90503 4.93587 4.96612 4.99576 5.02478 5.05315 5.08088 5.10795 5.13436 5.16011 5.1852 5.20962 5.2334 5.25652 5.279 5.30084 5.32206 5.34265 5.36264 5.38204 5.40084 5.41908 5.43675 5.45387 5.47045 5.48651 5.50206 5.51711 5.53167 5.54576 5.55939 5.57257 5.58532 5.59764 5.60955 5.62106 5.63218 5.64293 5.65332 5.66335 5.67303 5.68239 5.69143 5.70015 5.70858 5.71671 5.72457 5.73215 5.73947 5.74653 5.75335 5.75993 5.76628 5.77241 5.77832 5.78403 5.78954 5.79486 5.79999 5.80494 5.80972 5.81433 5.81878 5.82308 5.82722 5.83122 5.83508 5.83881 5.84241 5.84588 5.84923 5.85246
5.75401 5.7471 5.73996 5.73258 5.72496 5.71707 5.70893 5.70053 5.69184 5.68288 5.67363 5.66408 5.65424 5.64408 5.63361 5.62282 5.6117 5.60024 5.58844 5.5763 5.56381 5.55096 5.53774 5.52416 5.51021 5.49589 5.48119 5.46612 5.45066 5.43483 5.41862 5.40204 5.38509 5.36777 5.35009 5.33205 5.31368 5.29498 5.27596 5.25664 5.23704 5.21718 5.19709 5.17679 5.15632 5.1357 5.11498 5.0942 5.0734 5.05263 5.03195 5.01141 4.99108 4.97102 4.95129 4.93198 4.91316 4.89489 4.87728 4.86038 4.84429 4.82908 4.81484 4.80163 4.78953 4.7786 4.7689 4.76048 4.75337 4.74762 4.74324 4.74023 4.7386 4.73833 4.73941 4.74178 4.74543 4.75028 4.7563 4.76341 4.77154 4.78064 4.79062 4.80142 4.81296 4.82517 4.83799 4.85134 4.86516 4.87939 4.89397 4.90885 4.92396 4.93927 4.95472 4.97026 4.98587 5.00149 5.0171 5.03266 5.04814 5.0635 5.07873 5.09379 5.10866 5.12332 5.13775 5.15193 5.16584 5.17947 5.1928 5.20581 5.21851 5.23087 5.24289 5.25456 5.26587 5.27682 5.28741 5.29762 5.30746 5.31693 5.32602 5.33474 5.34309 5.35108 5.3587 5.36596 5.37287 5.37943 5.38565 5.39154 5.39711 5.40236 5.4073 5.41195 5.41631 5.4204 5.42422 5.42779 5.43112 5.43421 5.43709 5.43976 5.44224 5.44453 5.44665 5.4486 5.4504 5.45206 5.45359 5.455 5.45629 5.45748 5.45857 5.45957 5.46048 5.46132 5.46208 5.46277 5.4634 5.46396 5.46446 5.4649 5.46528 5.4656 5.46585 5.46605 5.46617 5.46622 5.4662 5.4661 5.46591 5.46563 5.46526 5.46478 5.46419 5.46348 5.46265 5.46168 5.46058 5.45932 5.4579 5.45632 5.45456 5.45262 5.4505 5.44817 5.44563 5.44288 5.43991 5.43671 5.43328 5.4296 5.42567 5.42149 5.41704 5.41233 5.40735 5.40209 5.39655 5.39072 5.3846 5.37818 5.37146 5.36443 5.3571 5.34945 5.34148 5.33319 5.32458 5.31562 5.30633 5.2967 5.28671 5.27637 5.26567 5.25459 5.24314 5.2313 5.21906 5.20641 5.19335 5.17986 5.16594 5.15156 5.13672 5.1214 5.1056 5.08929 5.07247 5.05511 5.03722 5.01876 4.99974 4.98014 4.95994 4.93914 4.91774 4.89571 4.87306 4.84979 4.82589 4.80138 4.77625 4.75053 4.72422 4.69735 4.66995 4.64206 4.6137 4.58494 4.55584 4.52645 4.49685 4.46714 4.43742 4.40778 4.37835 4.34927 4.32069 4.29275 4.26562 4.2395 4.21455 4.19098 4.16898 4.14876 4.1305 4.11441 4.10065 4.08939 4.08078 4.07493 4.07194 4.07185 4.07469 4.08046 4.0891 4.10055 4.11471 4.13143 4.15057 4.17197 4.19544 4.2208 4.24786 4.27643 4.30632 4.33735 4.36934 4.40213 4.43555 4.46947 4.50375 4.53826 4.57288 4.60751 4.64206 4.67644 4.71058 4.7444 4.77784 4.81086 4.84341 4.87545 4.90694 4.93785 4.96817 4.99786 5.02693 5.05534 5.08311 5.11021 5.13664 5.16241 5.18751 5.21195 5.23573 5.25886 5.28134 5.30318 5.3244 5.34499 5.36497 5.38436 5.40316 5.42138 5.43904 5.45615 5.47272 5.48876 5.50429 5.51933 5.53387 5.54794 5.56155 5.57471 5.58744 5.59974 5.61163 5.62312 5.63422 5.64495 5.65531 5.66532 5.67499 5.68432 5.69334 5.70204 5.71044 5.71855 5.72638 5.73394 5.74124 5.74828 5.75507 5.76163 5.76796 5.77406 5.77996 5.78564 5.79113 5.79642 5.80153 5.80646 5.81121 5.8158 5.82023 5.8245 5.82862 5.8326 5.83644 5.84014 5.84371 5.84716 5.85049 5.8537
5.75758 5.75081 5.74382 5.7366 5.72913 5.72142 5.71346 5.70524 5.69675 5.68799 5.67895 5.66962 5.66 5.65009 5.63987 5.62933 5.61849 5.60732 5.59582 5.58399 5.57182 5.55931 5.54645 5.53325 5.51969 5.50577 5.4915 5.47687 5.46187 5.44653 5.43082 5.41476 5.39836 5.38161 5.36452 5.34711 5.32938 5.31135 5.29302 5.27443 5.25558 5.2365 5.21721 5.19774 5.17813 5.1584 5.13859 5.11874 5.0989 5.07911 5.05942 5.0399 5.02059 5.00157 4.98288 4.96461 4.94682 4.92958 4.91297 4.89706 4.88192 4.86763 4.85425 4.84185 4.8305 4.82025 4.81116 4.80327 4.79661 4.79121 4.78709 4.78426 4.78271 4.78243 4.78341 4.78561 4.78899 4.79352 4.79913 4.80578 4.8134 4.82194 4.83132 4.84148 4.85236 4.86389 4.876 4.88863 4.90173 4.91522 4.92907 4.94321 4.95759 4.97217 4.98689 5.00173 5.01663 5.03156 5.04649 5.06138 5.0762 5.09092 5.10552 5.11997 5.13425 5.14833 5.1622 5.17584 5.18922 5.20234 5.21519 5.22774 5.23998 5.25191 5.26352 5.2748 5.28574 5.29634 5.30659 5.31649 5.32604 5.33523 5.34407 5.35256 5.36069 5.36847 5.37591 5.38301 5.38977 5.3962 5.4023 5.40809 5.41357 5.41874 5.42362 5.42822 5.43254 5.4366 5.4404 5.44396 5.44728 5.45038 5.45327 5.45596 5.45845 5.46077 5.46291 5.46489 5.46672 5.46841 5.46997 5.4714 5.47272 5.47393 5.47505 5.47606 5.47699 5.47784 5.47861 5.4793 5.47993 5.48048 5.48097 5.48139 5.48174 5.48203 5.48225 5.4824 5.48248 5.48249 5.48241 5.48225 5.48201 5.48167 5.48123 5.48068 5.48002 5.47925 5.47834 5.47731 5.47613 5.4748 5.47332 5.47167 5.46985 5.46785 5.46566 5.46328 5.46069 5.45789 5.45488 5.45164 5.44816 5.44445 5.44049 5.43629 5.43182 5.42709 5.4221 5.41683 5.41127 5.40544 5.39931 5.39289 5.38617 5.37915 5.37181 5.36416 5.35619 5.34789 5.33927 5.3303 5.321 5.31134 5.30133 5.29095 5.28021 5.26909 5.25757 5.24567 5.23335 5.22062 5.20746 5.19386 5.17982 5.1653 5.15032 5.13484 5.11886 5.10237 5.08534 5.06778 5.04965 5.03095 5.01167 4.9918 4.97131 4.95022 4.92849 4.90613 4.88314 4.85951 4.83524 4.81033 4.7848 4.75866 4.73191 4.70459 4.67672 4.64834 4.61948 4.59019 4.56054 4.53059 4.50042 4.4701 4.43975 4.40947 4.37938 4.34962 4.32034 4.29168 4.26384 4.23699 4.21132 4.18703 4.16433 4.14344 4.12455 4.10787 4.09359 4.08189 4.07291 4.06679 4.06362 4.06346 4.06634 4.07223 4.0811 4.09286 4.10739 4.12455 4.14417 4.16609 4.1901 4.21601 4.24362 4.27273 4.30315 4.33468 4.36716 4.4004 4.43425 4.46857 4.50322 4.53806 4.57299 4.60791 4.64271 4.67732 4.71167 4.74567 4.77929 4.81245 4.84513 4.87728 4.90888 4.93988 4.97027 5.00004 5.02916 5.05762 5.08542 5.11256 5.13902 5.16481 5.18993 5.21438 5.23817 5.2613 5.28378 5.30562 5.32683 5.34742 5.36739 5.38676 5.40555 5.42376 5.4414 5.45849 5.47504 5.49107 5.50658 5.52159 5.53612 5.55017 5.56375 5.57689 5.58959 5.60187 5.61374 5.62521 5.63628 5.64699 5.65732 5.66731 5.67695 5.68626 5.69525 5.70393 5.71231 5.72039 5.7282 5.73573 5.743 5.75002 5.75679 5.76332 5.76962 5.7757 5.78157 5.78723 5.79269 5.79796 5.80305 5.80795 5.81268 5.81724 5.82165 5.8259 5.82999 5.83395 5.83776 5.84144 5.84499 5.84842 5.85172 5.85491
5.76116 5.75454 5.7477 5.74063 5.73333 5.72579 5.71801 5.70997 5.70167 5.69312 5.68429 5.67518 5.6658 5.65612 5.64616 5.63589 5.62532 5.61444 5.60324 5.59172 5.57988 5.56771 5.55521 5.54238 5.52921 5.5157 5.50185 5.48766 5.47313 5.45826 5.44306 5.42753 5.41166 5.39548 5.37899 5.36219 5.3451 5.32772 5.31009 5.2922 5.27409 5.25578 5.23728 5.21862 5.19984 5.18098 5.16205 5.14311 5.12419 5.10535 5.08663 5.06808 5.04975 5.03172 5.01402 4.99674 4.97993 4.96366 4.948 4.93302 4.91877 4.90533 4.89276 4.88113 4.87048 4.86087 4.85234 4.84494 4.83869 4.83362 4.82974 4.82707 4.8256 4.82532 4.82621 4.82824 4.83139 4.8356 4.84085 4.84707 4.85421 4.86222 4.87103 4.8806 4.89084 4.90172 4.91316 4.9251 4.9375 4.9503 4.96343 4.97686 4.99054 5.00441 5.01844 5.03258 5.0468 5.06106 5.07532 5.08956 5.10375 5.11784 5.13183 5.14569 5.15939 5.1729 5.18623 5.19933 5.2122 5.22483 5.2372 5.24929 5.26109 5.2726 5.28381 5.2947 5.30527 5.31553 5.32545 5.33504 5.34429 5.35322 5.3618 5.37005 5.37796 5.38555 5.3928 5.39973 5.40633 5.41263 5.41861 5.42429 5.42967 5.43476 5.43957 5.44411 5.44838 5.4524 5.45618 5.45972 5.46303 5.46612 5.46901 5.4717 5.47421 5.47653 5.47869 5.48069 5.48255 5.48426 5.48584 5.48729 5.48863 5.48986 5.49099 5.49202 5.49296 5.49381 5.49458 5.49527 5.49589 5.49644 5.49691 5.49731 5.49764 5.4979 5.49809 5.4982 5.49824 5.4982 5.49807 5.49786 5.49756 5.49716 5.49666 5.49606 5.49534 5.4945 5.49353 5.49243 5.49118 5.48979 5.48825 5.48654 5.48466 5.4826 5.48036 5.47792 5.47528 5.47244 5.46938 5.4661 5.4626 5.45885 5.45487 5.45064 5.44615 5.4414 5.43639 5.43111 5.42555 5.41971 5.41358 5.40715 5.40043 5.3934 5.38606 5.37841 5.37043 5.36213 5.35349 5.34451 5.33519 5.32551 5.31547 5.30506 5.29428 5.2831 5.27154 5.25956 5.24717 5.23436 5.22111 5.2074 5.19324 5.1786 5.16347 5.14784 5.1317 5.11502 5.09781 5.08003 5.06169 5.04276 5.02323 5.00309 4.98233 4.96094 4.93891 4.91623 4.8929 4.86891 4.84427 4.81898 4.79305 4.76648 4.73929 4.71151 4.68316 4.65427 4.62489 4.59506 4.56483 4.53428 4.50348 4.47252 4.44149 4.4105 4.37967 4.34915 4.31908 4.28962 4.26095 4.23325 4.20674 4.18161 4.15809 4.13639 4.11674 4.09936 4.08445 4.07221 4.06279 4.05634 4.05297 4.05273 4.05565 4.06172 4.07088 4.08303 4.09804 4.11576 4.136 4.15856 4.18325 4.20985 4.23814 4.26792 4.29898 4.33114 4.36421 4.39801 4.43238 4.46718 4.50227 4.53752 4.57283 4.60808 4.64319 4.67808 4.71267 4.74689 4.7807 4.81405 4.84688 4.87917 4.91087 4.94198 4.97246 5.0023 5.03149 5.06 5.08785 5.11502 5.14151 5.16732 5.19246 5.21692 5.24072 5.26385 5.28633 5.30816 5.32936 5.34994 5.3699 5.38926 5.40803 5.42621 5.44384 5.46091 5.47744 5.49344 5.50893 5.52392 5.53841 5.55244 5.566 5.57911 5.59179 5.60404 5.61588 5.62732 5.63837 5.64904 5.65935 5.66931 5.67893 5.68821 5.69717 5.70582 5.71417 5.72223 5.73001 5.73752 5.74476 5.75175 5.75849 5.765 5.77127 5.77733 5.78317 5.78881 5.79424 5.79949 5.80454 5.80942 5.81413 5.81867 5.82305 5.82727 5.83135 5.83528 5.83907 5.84272 5.84625 5.84965 5.85294 5.8561
5.76475 5.75828 5.75159 5.74468 5.73754 5.73018 5.72257 5.71472 5.70662 5.69827 5.68965 5.68077 5.67162 5.66219 5.65247 5.64247 5.63218 5.62158 5.61069 5.59948 5.58797 5.57615 5.564 5.55154 5.53876 5.52566 5.51223 5.49848 5.48441 5.47003 5.45532 5.44031 5.42498 5.40936 5.39345 5.37726 5.36079 5.34408 5.32712 5.30993 5.29254 5.27497 5.25724 5.23938 5.22142 5.20339 5.18532 5.16726 5.14924 5.1313 5.1135 5.09589 5.0785 5.06141 5.04467 5.02832 5.01245 4.99709 4.98233 4.96821 4.95481 4.94217 4.93036 4.91943 4.90943 4.90041 4.89241 4.88547 4.8796 4.87484 4.87119 4.86867 4.86727 4.86699 4.86779 4.86968 4.8726 4.87653 4.88143 4.88725 4.89394 4.90146 4.90974 4.91873 4.92838 4.93864 4.94944 4.96073 4.97246 4.98458 4.99704 5.00979 5.02278 5.03597 5.04933 5.0628 5.07636 5.08997 5.10359 5.1172 5.13076 5.14425 5.15765 5.17092 5.18405 5.19702 5.20981 5.2224 5.23477 5.24691 5.25881 5.27045 5.28182 5.29292 5.30373 5.31424 5.32446 5.33437 5.34396 5.35325 5.36222 5.37087 5.3792 5.38721 5.39491 5.40229 5.40935 5.41611 5.42256 5.42871 5.43457 5.44013 5.44541 5.45042 5.45515 5.45962 5.46384 5.46782 5.47156 5.47507 5.47836 5.48144 5.48432 5.48701 5.48951 5.49185 5.49401 5.49603 5.49789 5.49962 5.50121 5.50268 5.50403 5.50527 5.50641 5.50745 5.50839 5.50925 5.51002 5.51071 5.51132 5.51185 5.51231 5.51269 5.51299 5.51323 5.51338 5.51346 5.51346 5.51337 5.5132 5.51294 5.51259 5.51214 5.51158 5.51092 5.51014 5.50924 5.50821 5.50705 5.50575 5.5043 5.50269 5.50093 5.49899 5.49688 5.49459 5.4921 5.48942 5.48654 5.48344 5.48012 5.47658 5.47281 5.4688 5.46455 5.46004 5.45528 5.45025 5.44496 5.43939 5.43354 5.4274 5.42097 5.41424 5.40721 5.39986 5.3922 5.38422 5.37591 5.36726 5.35827 5.34893 5.33923 5.32916 5.31872 5.30789 5.29667 5.28505 5.27301 5.26055 5.24766 5.23431 5.22051 5.20624 5.19147 5.17621 5.16044 5.14414 5.12729 5.10989 5.09192 5.07337 5.05421 5.03445 5.01406 4.99303 4.97136 4.94903 4.92604 4.90238 4.87805 4.85304 4.82737 4.80104 4.77405 4.74642 4.71817 4.68934 4.65994 4.63002 4.59962 4.5688 4.53762 4.50616 4.4745 4.44274 4.41099 4.37936 4.34801 4.31706 4.2867 4.2571 4.22846 4.20099 4.1749 4.15042 4.1278 4.10726 4.08906 4.0734 4.06051 4.05057 4.04373 4.04012 4.0398 4.04279 4.04908 4.0586 4.07124 4.08684 4.10523 4.12621 4.14957 4.17506 4.20248 4.23158 4.26216 4.29399 4.32688 4.36064 4.39508 4.43006 4.46542 4.50102 4.53674 4.57247 4.60811 4.64357 4.67877 4.71364 4.74812 4.78215 4.81569 4.84869 4.88113 4.91297 4.94419 4.97476 5.00469 5.03394 5.06252 5.09041 5.11762 5.14414 5.16997 5.19512 5.21959 5.24339 5.26652 5.28899 5.31082 5.33201 5.35257 5.37251 5.39185 5.4106 5.42876 5.44636 5.46341 5.47991 5.49588 5.51134 5.5263 5.54077 5.55476 5.5683 5.58138 5.59402 5.60624 5.61805 5.62946 5.64048 5.65113 5.66141 5.67133 5.68092 5.69017 5.6991 5.70772 5.71604 5.72407 5.73182 5.7393 5.74651 5.75348 5.76019 5.76667 5.77292 5.77895 5.78476 5.79037 5.79578 5.801 5.80603 5.81088 5.81556 5.82007 5.82443 5.82863 5.83268 5.83658 5.84035 5.84398 5.84749 5.85086 5.85412 5.85727
5.76835 5.76202 5.75549 5.74874 5.74177 5.73457 5.72715 5.71948 5.71158 5.70343 5.69503 5.68637 5.67745 5.66827 5.65881 5.64907 5.63905 5.62875 5.61815 5.60727 5.59608 5.5846 5.57281 5.56072 5.54833 5.53563 5.52262 5.50931 5.4957 5.48179 5.46758 5.45308 5.43829 5.42322 5.40788 5.39229 5.37644 5.36037 5.34407 5.32757 5.31089 5.29405 5.27707 5.25998 5.24281 5.22559 5.20836 5.19114 5.17398 5.15692 5.14001 5.12329 5.1068 5.09061 5.07476 5.05931 5.04431 5.02983 5.01591 5.00261 4.98999 4.9781 4.967 4.95674 4.94735 4.93888 4.93137 4.92485 4.91934 4.91486 4.91143 4.90905 4.90772 4.90743 4.90817 4.90991 4.91263 4.91629 4.92087 4.92631 4.93258 4.93963 4.94741 4.95587 4.96496 4.97463 4.98482 4.99549 5.00659 5.01806 5.02987 5.04196 5.0543 5.06684 5.07954 5.09237 5.10529 5.11827 5.13127 5.14426 5.15722 5.17013 5.18295 5.19566 5.20824 5.22067 5.23294 5.24502 5.25691 5.26858 5.28002 5.29122 5.30217 5.31286 5.32328 5.33342 5.34328 5.35286 5.36214 5.37112 5.3798 5.38818 5.39626 5.40404 5.41152 5.41869 5.42557 5.43216 5.43845 5.44445 5.45018 5.45562 5.4608 5.46571 5.47036 5.47477 5.47892 5.48285 5.48654 5.49001 5.49328 5.49634 5.4992 5.50188 5.50438 5.50671 5.50888 5.5109 5.51277 5.5145 5.5161 5.51758 5.51894 5.52019 5.52133 5.52237 5.52332 5.52417 5.52494 5.52562 5.52622 5.52674 5.52718 5.52754 5.52782 5.52803 5.52815 5.52819 5.52816 5.52803 5.52782 5.52751 5.52711 5.52661 5.526 5.52528 5.52445 5.52349 5.52241 5.52119 5.51983 5.51833 5.51667 5.51486 5.51287 5.51071 5.50837 5.50584 5.50312 5.50019 5.49706 5.49371 5.49014 5.48634 5.48231 5.47803 5.4735 5.46873 5.46369 5.45838 5.4528 5.44694 5.4408 5.43436 5.42763 5.42059 5.41324 5.40557 5.39758 5.38926 5.3806 5.37159 5.36223 5.35251 5.34241 5.33194 5.32108 5.30981 5.29814 5.28604 5.27351 5.26054 5.24711 5.23322 5.21884 5.20396 5.18857 5.17266 5.15621 5.13921 5.12163 5.10348 5.08472 5.06536 5.04537 5.02474 5.00346 4.98151 4.9589 4.93561 4.91163 4.88697 4.86161 4.83556 4.80883 4.78143 4.75337 4.72466 4.69533 4.66541 4.63495 4.60397 4.57254 4.54071 4.50857 4.47618 4.44365 4.41109 4.37861 4.34635 4.31447 4.28313 4.25251 4.22282 4.19427 4.1671 4.14155 4.11787 4.09632 4.07716 4.06064 4.047 4.03645 4.02916 4.02526 4.02485 4.02793 4.0345 4.04445 4.05768 4.07399 4.09318 4.11504 4.13932 4.16576 4.19412 4.22416 4.25565 4.28835 4.32207 4.35661 4.39179 4.42744 4.46342 4.49959 4.53583 4.57204 4.6081 4.64395 4.67949 4.71466 4.74941 4.78368 4.81743 4.85062 4.88322 4.9152 4.94653 4.97721 5.00722 5.03654 5.06518 5.09312 5.12036 5.14691 5.17276 5.19792 5.2224 5.2462 5.26933 5.29179 5.3136 5.33477 5.35531 5.37523 5.39455 5.41327 5.43141 5.44897 5.46599 5.48246 5.4984 5.51383 5.52875 5.54319 5.55715 5.57065 5.58369 5.5963 5.60849 5.62026 5.63164 5.64262 5.65324 5.66348 5.67337 5.68293 5.69215 5.70105 5.70963 5.71792 5.72592 5.73364 5.74109 5.74827 5.7552 5.76189 5.76834 5.77456 5.78055 5.78634 5.79192 5.7973 5.80249 5.8075 5.81232 5.81698 5.82146 5.82579 5.82997 5.83399 5.83787 5.84161 5.84522 5.8487 5.85206 5.85529 5.85841
5.77195 5.76577 5.75939 5.7528 5.74599 5.73897 5.73173 5.72425 5.71655 5.70861 5.70042 5.69199 5.6833 5.67436 5.66515 5.65568 5.64594 5.63592 5.62563 5.61505 5.6042 5.59305 5.58162 5.5699 5.55789 5.5456 5.53301 5.52013 5.50697 5.49353 5.47981 5.46581 5.45155 5.43703 5.42226 5.40725 5.39202 5.37657 5.36092 5.34509 5.3291 5.31297 5.29672 5.28038 5.26398 5.24755 5.23111 5.21471 5.19838 5.18216 5.1661 5.15023 5.1346 5.11927 5.10427 5.08967 5.0755 5.06183 5.04871 5.03618 5.0243 5.01312 5.00268 4.99303 4.98421 4.97626 4.96921 4.96308 4.9579 4.9537 4.95046 4.94822 4.94695 4.94666 4.94732 4.94893 4.95146 4.95488 4.95916 4.96425 4.97013 4.97674 4.98405 4.99201 5.00056 5.00967 5.01929 5.02937 5.03986 5.05072 5.06191 5.07337 5.08508 5.097 5.10907 5.12128 5.13358 5.14595 5.15835 5.17075 5.18313 5.19546 5.20772 5.21988 5.23193 5.24385 5.25561 5.2672 5.27861 5.28982 5.30081 5.31158 5.32212 5.33241 5.34245 5.35223 5.36175 5.37099 5.37995 5.38864 5.39704 5.40516 5.41299 5.42053 5.42779 5.43476 5.44145 5.44786 5.45399 5.45985 5.46544 5.47077 5.47583 5.48064 5.48521 5.48954 5.49363 5.49749 5.50114 5.50457 5.5078 5.51083 5.51367 5.51633 5.51882 5.52114 5.5233 5.52532 5.52719 5.52892 5.53052 5.532 5.53336 5.53461 5.53576 5.5368 5.53774 5.53859 5.53935 5.54003 5.54061 5.54112 5.54154 5.54188 5.54214 5.54232 5.54241 5.54242 5.54235 5.54218 5.54193 5.54158 5.54113 5.54059 5.53993 5.53916 5.53828 5.53727 5.53614 5.53487 5.53346 5.53191 5.5302 5.52833 5.5263 5.5241 5.52171 5.51914 5.51638 5.51342 5.51025 5.50687 5.50328 5.49945 5.49539 5.4911 5.48655 5.48176 5.47671 5.47139 5.4658 5.45993 5.45378 5.44734 5.4406 5.43356 5.4262 5.41853 5.41053 5.4022 5.39353 5.38451 5.37513 5.36538 5.35526 5.34476 5.33385 5.32255 5.31083 5.29867 5.28608 5.27304 5.25953 5.24555 5.23107 5.21608 5.20058 5.18454 5.16795 5.1508 5.13306 5.11473 5.09579 5.07623 5.05602 5.03517 5.01365 4.99145 4.96857 4.94499 4.92071 4.89572 4.87002 4.84362 4.8165 4.7887 4.7602 4.73104 4.70122 4.67079 4.63978 4.60822 4.57617 4.54368 4.51083 4.4777 4.44438 4.41097 4.37759 4.34438 4.3115 4.27911 4.24739 4.21657 4.18685 4.15848 4.13173 4.10687 4.08417 4.06393 4.04642 4.03192 4.02066 4.01284 4.00863 4.00811 4.01131 4.0182 4.02868 4.0426 4.05974 4.07987 4.10274 4.12807 4.15559 4.18503 4.21612 4.24862 4.28229 4.31693 4.35232 4.38829 4.42468 4.46134 4.49813 4.53493 4.57164 4.60816 4.64441 4.68032 4.71581 4.75085 4.78537 4.81934 4.85272 4.88548 4.9176 4.94906 4.97985 5.00994 5.03933 5.06802 5.09601 5.12328 5.14985 5.17572 5.20089 5.22537 5.24916 5.27228 5.29473 5.31652 5.33767 5.35818 5.37808 5.39736 5.41605 5.43415 5.45169 5.46866 5.4851 5.501 5.51639 5.53128 5.54568 5.5596 5.57305 5.58606 5.59864 5.61078 5.62252 5.63385 5.6448 5.65538 5.66559 5.67544 5.68496 5.69414 5.70301 5.71156 5.71982 5.72778 5.73547 5.74288 5.75003 5.75693 5.76358 5.77 5.77619 5.78216 5.78791 5.79346 5.79882 5.80398 5.80895 5.81375 5.81838 5.82284 5.82714 5.83129 5.83529 5.83914 5.84286 5.84644 5.8499 5.85323 5.85644 5.85954
5.77556 5.76952 5.76329 5.75686 5.75022 5.74337 5.73631 5.72903 5.72152 5.71378 5.70581 5.6976 5.68915 5.68045 5.67149 5.66229 5.65282 5.64309 5.6331 5.62284 5.6123 5.6015 5.59042 5.57907 5.56744 5.55554 5.54337 5.53092 5.51821 5.50523 5.49199 5.4785 5.46475 5.45077 5.43656 5.42212 5.40748 5.39265 5.37763 5.36246 5.34714 5.3317 5.31616 5.30055 5.28489 5.26921 5.25355 5.23794 5.2224 5.20699 5.19174 5.17668 5.16187 5.14735 5.13317 5.11936 5.10599 5.09309 5.08071 5.06891 5.05773 5.0472 5.03739 5.02831 5.02002 5.01255 5.00592 5.00017 4.9953 4.99134 4.98829 4.98617 4.98496 4.98467 4.98528 4.98677 4.98912 4.99231 4.9963 5.00107 5.00658 5.01279 5.01965 5.02713 5.03519 5.04377 5.05284 5.06236 5.07227 5.08255 5.09314 5.10401 5.11512 5.12643 5.1379 5.14951 5.16122 5.173 5.18482 5.19665 5.20846 5.22024 5.23196 5.24359 5.25513 5.26653 5.2778 5.28892 5.29986 5.31062 5.32118 5.33154 5.34167 5.35158 5.36124 5.37067 5.37984 5.38876 5.39741 5.4058 5.41393 5.42178 5.42936 5.43668 5.44372 5.45049 5.45699 5.46322 5.46919 5.4749 5.48035 5.48556 5.49051 5.49522 5.49969 5.50394 5.50796 5.51176 5.51535 5.51873 5.52192 5.52492 5.52773 5.53037 5.53284 5.53514 5.5373 5.5393 5.54116 5.54289 5.54449 5.54597 5.54733 5.54857 5.54971 5.55075 5.55169 5.55253 5.55328 5.55394 5.55452 5.55501 5.55541 5.55573 5.55596 5.55612 5.55618 5.55616 5.55605 5.55585 5.55556 5.55517 5.55468 5.55409 5.55339 5.55257 5.55164 5.55059 5.54941 5.54809 5.54664 5.54504 5.54328 5.54137 5.5393 5.53705 5.53463 5.53202 5.52923 5.52623 5.52303 5.51963 5.516 5.51215 5.50807 5.50376 5.4992 5.49439 5.48933 5.484 5.4784 5.47253 5.46637 5.45992 5.45318 5.44613 5.43877 5.43109 5.42308 5.41474 5.40606 5.39703 5.38763 5.37786 5.36772 5.35719 5.34625 5.33491 5.32314 5.31094 5.29829 5.28518 5.2716 5.25753 5.24296 5.22788 5.21227 5.19611 5.17939 5.1621 5.14422 5.12573 5.10661 5.08686 5.06646 5.0454 5.02365 5.00122 4.97808 4.95423 4.92966 4.90437 4.87834 4.85159 4.82411 4.79591 4.767 4.73739 4.70711 4.67617 4.64462 4.61248 4.57981 4.54666 4.5131 4.47921 4.44508 4.4108 4.3765 4.34231 4.30839 4.27489 4.24202 4.20997 4.179 4.14934 4.12128 4.09511 4.07114 4.04968 4.03106 4.01557 4.00349 3.99507 3.99049 3.98986 3.9932 4.00049 4.01158 4.0263 4.0444 4.06561 4.08963 4.11615 4.14487 4.17549 4.20774 4.24134 4.27606 4.31168 4.34799 4.38481 4.42198 4.45935 4.49678 4.53417 4.57141 4.6084 4.64507 4.68135 4.71718 4.75251 4.78729 4.82148 4.85505 4.88798 4.92024 4.95182 4.9827 5.01288 5.04234 5.07108 5.0991 5.12641 5.15299 5.17887 5.20404 5.22851 5.25229 5.27539 5.29782 5.31959 5.3407 5.36119 5.38105 5.40029 5.41894 5.43701 5.4545 5.47144 5.48783 5.50369 5.51904 5.53388 5.54823 5.56211 5.57553 5.58849 5.60102 5.61312 5.62482 5.63611 5.64702 5.65755 5.66772 5.67754 5.68702 5.69616 5.70499 5.7135 5.72172 5.72965 5.7373 5.74468 5.75179 5.75866 5.76528 5.77166 5.77782 5.78376 5.78948 5.795 5.80032 5.80546 5.8104 5.81517 5.81977 5.8242 5.82848 5.8326 5.83657 5.8404 5.84409 5.84765 5.85108 5.85438 5.85757 5.86065
5.77916 5.77327 5.76719 5.76092 5.75445 5.74777 5.74089 5.7338 5.72648 5.71895 5.7112 5.70321 5.69499 5.68653 5.67783 5.66889 5.65969 5.65025 5.64056 5.6306 5.62039 5.60993 5.5992 5.58821 5.57696 5.56545 5.55369 5.54167 5.5294 5.51687 5.50411 5.49111 5.47787 5.46442 5.45075 5.43688 5.42282 5.40858 5.39419 5.37965 5.36498 5.35021 5.33536 5.32045 5.30551 5.29056 5.27564 5.26078 5.24601 5.23137 5.21689 5.20262 5.18858 5.17484 5.16142 5.14837 5.13574 5.12357 5.1119 5.10078 5.09025 5.08034 5.07111 5.06257 5.05478 5.04776 5.04153 5.03611 5.03153 5.02781 5.02494 5.02293 5.02178 5.02148 5.02203 5.02341 5.0256 5.02858 5.03231 5.03678 5.04194 5.04776 5.05421 5.06124 5.06882 5.07691 5.08547 5.09445 5.10382 5.11353 5.12356 5.13385 5.14439 5.15512 5.16602 5.17706 5.18819 5.19941 5.21067 5.22195 5.23322 5.24446 5.25566 5.26678 5.27781 5.28873 5.29952 5.31017 5.32066 5.33099 5.34113 5.35107 5.36081 5.37034 5.37964 5.38872 5.39756 5.40616 5.41451 5.42261 5.43046 5.43806 5.4454 5.45248 5.4593 5.46587 5.47218 5.47824 5.48405 5.48961 5.49492 5.5 5.50483 5.50944 5.51382 5.51798 5.52192 5.52565 5.52918 5.53251 5.53565 5.53861 5.54139 5.544 5.54644 5.54873 5.55087 5.55286 5.55471 5.55643 5.55802 5.55949 5.56084 5.56208 5.56321 5.56424 5.56517 5.566 5.56674 5.56739 5.56795 5.56842 5.5688 5.5691 5.56931 5.56944 5.56948 5.56942 5.56928 5.56905 5.56872 5.56829 5.56776 5.56713 5.56639 5.56553 5.56456 5.56346 5.56223 5.56087 5.55938 5.55773 5.55594 5.55399 5.55187 5.54959 5.54713 5.54449 5.54166 5.53864 5.53541 5.53198 5.52833 5.52446 5.52036 5.51603 5.51145 5.50663 5.50156 5.49622 5.49061 5.48473 5.47857 5.47212 5.46537 5.45832 5.45095 5.44327 5.43526 5.42691 5.41822 5.40917 5.39976 5.38998 5.37981 5.36925 5.35829 5.34691 5.3351 5.32285 5.31015 5.29698 5.28334 5.2692 5.25455 5.23938 5.22367 5.2074 5.19057 5.17315 5.15513 5.13649 5.11722 5.0973 5.07672 5.05546 5.03351 5.01085 4.98748 4.96338 4.93854 4.91296 4.88663 4.85956 4.83173 4.80316 4.77385 4.74381 4.71307 4.68165 4.64957 4.61687 4.58359 4.54979 4.51554 4.48089 4.44595 4.4108 4.37557 4.34038 4.30538 4.27075 4.23667 4.20336 4.17106 4.14003 4.11056 4.08298 4.0576 4.0348 4.01491 3.99831 3.9853 3.97619 3.97119 3.97043 3.97395 3.98169 3.99351 4.00916 4.02836 4.05078 4.07608 4.10392 4.13395 4.16586 4.19934 4.23412 4.26995 4.3066 4.34386 4.38156 4.41954 4.45763 4.49573 4.53371 4.57148 4.60895 4.64605 4.6827 4.71886 4.75448 4.78951 4.82392 4.85768 4.89076 4.92316 4.95485 4.98582 5.01607 5.04559 5.07437 5.10243 5.12975 5.15635 5.18222 5.20739 5.23184 5.2556 5.27868 5.30108 5.32281 5.34389 5.36434 5.38415 5.40336 5.42196 5.43998 5.45743 5.47432 5.49066 5.50647 5.52177 5.53656 5.55087 5.5647 5.57806 5.59098 5.60346 5.61552 5.62717 5.63842 5.64928 5.65977 5.66989 5.67967 5.6891 5.6982 5.70699 5.71547 5.72364 5.73153 5.73914 5.74649 5.75357 5.76039 5.76698 5.77333 5.77945 5.78536 5.79105 5.79654 5.80183 5.80693 5.81184 5.81658 5.82115 5.82556 5.8298 5.83389 5.83784 5.84164 5.84531 5.84884 5.85224 5.85553 5.85869 5.86174
5.78275 5.77701 5.77108 5.76497 5.75866 5.75216 5.74546 5.73856 5.73144 5.72411 5.71657 5.7088 5.70081 5.6926 5.68415 5.67547 5.66655 5.65739 5.64799 5.63835 5.62846 5.61832 5.60794 5.59731 5.58644 5.57532 5.56395 5.55235 5.54051 5.52844 5.51614 5.50362 5.49089 5.47795 5.46481 5.45149 5.438 5.42435 5.41055 5.39663 5.3826 5.36848 5.35429 5.34006 5.32581 5.31157 5.29736 5.28322 5.26918 5.25528 5.24154 5.228 5.21471 5.2017 5.18901 5.17668 5.16475 5.15327 5.14226 5.13178 5.12186 5.11253 5.10384 5.09581 5.08849 5.08188 5.07602 5.07093 5.06662 5.06311 5.0604 5.0585 5.05741 5.05711 5.05761 5.05889 5.06092 5.0637 5.06719 5.07137 5.07621 5.08167 5.08773 5.09434 5.10148 5.1091 5.11716 5.12564 5.13449 5.14367 5.15316 5.16291 5.1729 5.18308 5.19343 5.20391 5.2145 5.22517 5.23589 5.24664 5.25739 5.26812 5.2788 5.28943 5.29997 5.31042 5.32075 5.33095 5.34101 5.35091 5.36064 5.37019 5.37954 5.3887 5.39765 5.40639 5.4149 5.42319 5.43124 5.43906 5.44664 5.45398 5.46108 5.46793 5.47454 5.48091 5.48703 5.49292 5.49856 5.50397 5.50914 5.51409 5.51881 5.52331 5.52759 5.53166 5.53552 5.53918 5.54264 5.54592 5.54901 5.55192 5.55466 5.55724 5.55965 5.56191 5.56403 5.566 5.56783 5.56954 5.57111 5.57257 5.57391 5.57514 5.57626 5.57728 5.5782 5.57902 5.57975 5.58038 5.58092 5.58137 5.58174 5.58201 5.5822 5.5823 5.58231 5.58223 5.58206 5.58179 5.58143 5.58097 5.5804 5.57973 5.57895 5.57805 5.57704 5.5759 5.57463 5.57323 5.57169 5.57001 5.56818 5.56619 5.56404 5.56172 5.55923 5.55656 5.5537 5.55065 5.5474 5.54394 5.54027 5.53638 5.53226 5.52792 5.52333 5.5185 5.51341 5.50807 5.50245 5.49657 5.4904 5.48395 5.47719 5.47014 5.46277 5.45508 5.44707 5.43871 5.43001 5.42096 5.41153 5.40174 5.39155 5.38097 5.36998 5.35857 5.34673 5.33444 5.3217 5.30848 5.29477 5.28057 5.26585 5.2506 5.2348 5.21844 5.20151 5.18398 5.16584 5.14707 5.12765 5.10758 5.08684 5.0654 5.04326 5.0204 4.99682 4.97248 4.9474 4.92156 4.89495 4.86757 4.83942 4.8105 4.78082 4.75039 4.71922 4.68733 4.65475 4.62151 4.58765 4.55322 4.51829 4.48291 4.44717 4.41117 4.37501 4.33883 4.30276 4.26698 4.23168 4.19707 4.1634 4.13094 4.09999 4.07089 4.044 4.01971 3.99844 3.98057 3.96652 3.95661 3.95112 3.95022 3.95395 3.96224 3.97489 3.99161 4.01205 4.03583 4.06254 4.0918 4.12324 4.1565 4.19128 4.22729 4.26426 4.30196 4.3402 4.37879 4.41757 4.45639 4.49515 4.53372 4.57201 4.60995 4.64746 4.68448 4.72095 4.75684 4.79211 4.82672 4.86066 4.89389 4.92641 4.9582 4.98925 5.01956 5.04912 5.07794 5.10601 5.13334 5.15994 5.18581 5.21095 5.23538 5.25912 5.28215 5.30451 5.32621 5.34725 5.36764 5.38741 5.40656 5.42511 5.44308 5.46047 5.4773 5.49359 5.50935 5.52459 5.53933 5.55358 5.56736 5.58067 5.59354 5.60597 5.61797 5.62957 5.64077 5.65158 5.66202 5.6721 5.68183 5.69121 5.70027 5.70902 5.71745 5.72559 5.73343 5.741 5.74831 5.75535 5.76214 5.76869 5.775 5.78109 5.78695 5.79261 5.79807 5.80332 5.80839 5.81328 5.81799 5.82253 5.8269 5.83112 5.83518 5.8391 5.84287 5.84651 5.85002 5.8534 5.85665 5.85979 5.86282
5.78633 5.78073 5.77496 5.76901 5.76287 5.75654 5.75002 5.7433 5.73638 5.72926 5.72193 5.71438 5.70662 5.69865 5.69045 5.68202 5.67338 5.6645 5.65539 5.64605 5.63648 5.62667 5.61663 5.60636 5.59585 5.58511 5.57415 5.56296 5.55154 5.53991 5.52807 5.51602 5.50378 5.49134 5.47873 5.46594 5.453 5.43992 5.42671 5.41338 5.39996 5.38647 5.37293 5.35935 5.34576 5.3322 5.31868 5.30523 5.29189 5.27869 5.26566 5.25283 5.24024 5.22792 5.21592 5.20427 5.193 5.18216 5.17179 5.16191 5.15256 5.14378 5.1356 5.12804 5.12115 5.11493 5.10942 5.10463 5.10057 5.09726 5.09471 5.09291 5.09187 5.09157 5.09202 5.09321 5.0951 5.09769 5.10096 5.10487 5.1094 5.11453 5.12022 5.12644 5.13315 5.14033 5.14793 5.15593 5.16429 5.17297 5.18194 5.19118 5.20064 5.21029 5.22011 5.23007 5.24014 5.25028 5.26049 5.27072 5.28097 5.2912 5.3014 5.31155 5.32162 5.33161 5.34149 5.35126 5.36089 5.37038 5.37971 5.38887 5.39786 5.40666 5.41526 5.42366 5.43186 5.43984 5.4476 5.45514 5.46246 5.46955 5.47641 5.48304 5.48943 5.4956 5.50154 5.50725 5.51273 5.51799 5.52302 5.52784 5.53243 5.53682 5.541 5.54498 5.54876 5.55234 5.55574 5.55895 5.56199 5.56485 5.56755 5.57009 5.57247 5.5747 5.57679 5.57874 5.58055 5.58223 5.5838 5.58524 5.58656 5.58778 5.58889 5.58989 5.59079 5.5916 5.59231 5.59293 5.59345 5.59388 5.59423 5.59448 5.59465 5.59472 5.5947 5.59459 5.59439 5.59409 5.5937 5.5932 5.5926 5.59189 5.59108 5.59014 5.58909 5.58792 5.58661 5.58518 5.5836 5.58188 5.58002 5.57799 5.57581 5.57346 5.57094 5.56824 5.56535 5.56228 5.559 5.55552 5.55183 5.54793 5.5438 5.53944 5.53484 5.53 5.5249 5.51955 5.51394 5.50805 5.50188 5.49542 5.48866 5.48161 5.47424 5.46655 5.45853 5.45017 5.44147 5.4324 5.42297 5.41316 5.40297 5.39237 5.38136 5.36992 5.35805 5.34573 5.33295 5.31969 5.30594 5.29168 5.2769 5.26158 5.24571 5.22927 5.21224 5.19461 5.17636 5.15748 5.13795 5.11774 5.09685 5.07526 5.05295 5.02992 5.00614 4.9816 4.9563 4.93022 4.90335 4.8757 4.84725 4.81802 4.788 4.7572 4.72563 4.69331 4.66027 4.62652 4.59212 4.5571 4.52152 4.48545 4.44895 4.41213 4.37508 4.33793 4.30082 4.26391 4.2274 4.19149 4.15643 4.12251 4.09002 4.05934 4.03084 4.00496 3.98216 3.96289 3.94764 3.93681 3.93077 3.92971 3.93369 3.94262 3.95624 3.97417 3.996 4.02127 4.04951 4.08028 4.11319 4.14786 4.18397 4.22121 4.25932 4.29808 4.33728 4.37674 4.4163 4.45583 4.49522 4.53435 4.57315 4.61153 4.64942 4.68678 4.72355 4.75969 4.79518 4.82997 4.86406 4.89742 4.93004 4.96191 4.99303 5.02338 5.05298 5.08181 5.10989 5.13721 5.16379 5.18964 5.21475 5.23915 5.26284 5.28584 5.30815 5.32979 5.35077 5.37111 5.39082 5.40991 5.4284 5.44631 5.46364 5.48041 5.49664 5.51233 5.52751 5.54219 5.55638 5.5701 5.58335 5.59616 5.60853 5.62048 5.63203 5.64317 5.65393 5.66432 5.67435 5.68402 5.69336 5.70237 5.71107 5.71946 5.72755 5.73535 5.74288 5.75014 5.75714 5.76389 5.7704 5.77667 5.78272 5.78856 5.79418 5.7996 5.80482 5.80986 5.81471 5.81939 5.82389 5.82824 5.83242 5.83646 5.84035 5.84409 5.8477 5.85118 5.85453 5.85777 5.86088 5.86388
5.7899 5.78445 5.77883 5.77303 5.76706 5.7609 5.75456 5.74803 5.7413 5.73438 5.72726 5.71994 5.7124 5.70466 5.69671 5.68855 5.68017 5.67157 5.66275 5.65371 5.64445 5.63497 5.62526 5.61534 5.6052 5.59483 5.58426 5.57347 5.56248 5.55128 5.53988 5.5283 5.51653 5.50458 5.49247 5.48021 5.46781 5.45528 5.44263 5.42989 5.41706 5.40418 5.39125 5.3783 5.36536 5.35244 5.33958 5.3268 5.31412 5.30159 5.28923 5.27707 5.26515 5.25349 5.24214 5.23113 5.22049 5.21026 5.20047 5.19116 5.18235 5.17408 5.16638 5.15927 5.15277 5.14693 5.14174 5.13723 5.13341 5.13029 5.12787 5.12617 5.12518 5.12489 5.12529 5.12639 5.12815 5.13057 5.13362 5.13729 5.14154 5.14635 5.15169 5.15754 5.16386 5.17062 5.17778 5.18533 5.19322 5.20143 5.20991 5.21865 5.22761 5.23676 5.24608 5.25553 5.2651 5.27474 5.28445 5.29419 5.30395 5.31371 5.32344 5.33312 5.34275 5.35229 5.36174 5.37109 5.38031 5.3894 5.39834 5.40713 5.41575 5.4242 5.43247 5.44055 5.44843 5.45611 5.46359 5.47086 5.47792 5.48476 5.49139 5.49779 5.50398 5.50995 5.5157 5.52124 5.52656 5.53166 5.53656 5.54124 5.54572 5.54999 5.55407 5.55795 5.56164 5.56515 5.56848 5.57163 5.5746 5.57742 5.58007 5.58256 5.5849 5.5871 5.58916 5.59108 5.59287 5.59453 5.59607 5.59749 5.5988 5.6 5.60109 5.60208 5.60297 5.60376 5.60445 5.60505 5.60555 5.60597 5.60629 5.60652 5.60666 5.60671 5.60667 5.60653 5.6063 5.60597 5.60554 5.60502 5.60438 5.60364 5.60279 5.60182 5.60074 5.59953 5.59819 5.59672 5.59511 5.59336 5.59146 5.58941 5.58719 5.58482 5.58227 5.57954 5.57663 5.57353 5.57024 5.56674 5.56304 5.55911 5.55497 5.5506 5.54599 5.54114 5.53604 5.53069 5.52507 5.51918 5.51301 5.50655 5.4998 5.49274 5.48537 5.47768 5.46966 5.4613 5.4526 5.44353 5.4341 5.42428 5.41407 5.40346 5.39244 5.38099 5.36909 5.35675 5.34393 5.33064 5.31684 5.30254 5.28771 5.27234 5.2564 5.2399 5.22279 5.20508 5.18675 5.16777 5.14813 5.12781 5.1068 5.08507 5.06262 5.03943 5.01549 4.99077 4.96527 4.93899 4.9119 4.88401 4.8553 4.82579 4.79546 4.76433 4.7324 4.6997 4.66623 4.63203 4.59713 4.56157 4.5254 4.48868 4.45148 4.41389 4.37601 4.33794 4.29984 4.26186 4.22418 4.18701 4.15059 4.11522 4.0812 4.0489 4.01873 3.99117 3.9667 3.94589 3.92928 3.91741 3.91071 3.90947 3.91377 3.92345 3.93818 3.95749 3.98085 4.00772 4.03756 4.06991 4.10432 4.1404 4.17782 4.21627 4.2555 4.29527 4.33538 4.37566 4.41597 4.45616 4.49613 4.53579 4.57504 4.61382 4.65206 4.68972 4.72675 4.76312 4.79879 4.83374 4.86795 4.90142 4.93411 4.96604 4.9972 5.02758 5.05718 5.08601 5.11408 5.14138 5.16793 5.19374 5.21881 5.24316 5.2668 5.28973 5.31199 5.33356 5.35448 5.37475 5.39439 5.41342 5.43184 5.44968 5.46694 5.48364 5.4998 5.51543 5.53054 5.54515 5.55927 5.57292 5.58611 5.59886 5.61117 5.62306 5.63454 5.64563 5.65633 5.66666 5.67663 5.68626 5.69555 5.70451 5.71315 5.72149 5.72953 5.73729 5.74477 5.75199 5.75895 5.76565 5.77212 5.77836 5.78437 5.79016 5.79575 5.80113 5.80632 5.81132 5.81614 5.82078 5.82525 5.82957 5.83372 5.83773 5.84159 5.8453 5.84889 5.85234 5.85566 5.85887 5.86196 5.86493
5.79345 5.78815 5.78268 5.77704 5.77123 5.76524 5.75908 5.75273 5.7462 5.73948 5.73257 5.72546 5.71815 5.71065 5.70294 5.69503 5.68691 5.67859 5.67005 5.66131 5.65236 5.6432 5.63382 5.62424 5.61446 5.60447 5.59427 5.58388 5.57329 5.56252 5.55156 5.54042 5.52912 5.51766 5.50604 5.49429 5.4824 5.47041 5.45831 5.44612 5.43387 5.42157 5.40924 5.3969 5.38457 5.37227 5.36004 5.34789 5.33586 5.32396 5.31224 5.30072 5.28943 5.2784 5.26767 5.25726 5.24722 5.23756 5.22832 5.21954 5.21124 5.20345 5.19619 5.18949 5.18338 5.17788 5.17299 5.16874 5.16514 5.1622 5.15992 5.15831 5.15736 5.15707 5.15744 5.15845 5.1601 5.16235 5.16521 5.16864 5.17263 5.17714 5.18216 5.18766 5.1936 5.19997 5.20672 5.21384 5.22129 5.22904 5.23707 5.24534 5.25382 5.26249 5.27133 5.2803 5.28938 5.29855 5.30778 5.31705 5.32635 5.33564 5.34492 5.35416 5.36334 5.37246 5.3815 5.39043 5.39926 5.40796 5.41653 5.42495 5.43323 5.44133 5.44927 5.45704 5.46462 5.47201 5.47921 5.48621 5.49302 5.49962 5.50601 5.5122 5.51818 5.52396 5.52953 5.53489 5.54005 5.545 5.54975 5.5543 5.55866 5.56282 5.56679 5.57058 5.57418 5.57761 5.58086 5.58394 5.58686 5.58961 5.59221 5.59466 5.59697 5.59913 5.60115 5.60304 5.6048 5.60644 5.60795 5.60935 5.61064 5.61182 5.61289 5.61386 5.61473 5.6155 5.61618 5.61675 5.61724 5.61763 5.61793 5.61814 5.61826 5.61828 5.61822 5.61805 5.61779 5.61744 5.61698 5.61642 5.61576 5.61499 5.61411 5.61311 5.61199 5.61075 5.60938 5.60788 5.60624 5.60446 5.60253 5.60045 5.59821 5.5958 5.59323 5.59048 5.58755 5.58443 5.58112 5.57761 5.57389 5.56995 5.5658 5.56142 5.55681 5.55195 5.54685 5.54149 5.53587 5.52998 5.52381 5.51735 5.5106 5.50355 5.49618 5.4885 5.48048 5.47212 5.46342 5.45435 5.44492 5.4351 5.42489 5.41427 5.40324 5.39177 5.37987 5.3675 5.35467 5.34135 5.32753 5.31319 5.29832 5.2829 5.26692 5.25036 5.2332 5.21543 5.19702 5.17796 5.15823 5.13782 5.11671 5.09488 5.07231 5.04899 5.02491 5.00004 4.97438 4.94792 4.92065 4.89255 4.86362 4.83387 4.80328 4.77187 4.73964 4.70659 4.67276 4.63816 4.60282 4.56678 4.53009 4.49279 4.45496 4.41668 4.37804 4.33915 4.30014 4.26116 4.2224 4.18405 4.14635 4.10959 4.07407 4.04018 4.00834 3.97903 3.95282 3.93032 3.9122 3.89912 3.89165 3.8902 3.89487 3.90545 3.92147 3.94232 3.96733 3.99588 4.02737 4.06128 4.09716 4.13461 4.17328 4.21288 4.25314 4.29384 4.33479 4.37582 4.41679 4.45758 4.49807 4.53818 4.57783 4.61695 4.6555 4.69341 4.73065 4.7672 4.80302 4.83809 4.87239 4.90592 4.93867 4.97063 5.0018 5.03218 5.06177 5.09058 5.11862 5.14588 5.17238 5.19813 5.22314 5.24743 5.271 5.29386 5.31604 5.33754 5.35838 5.37858 5.39814 5.41709 5.43543 5.45319 5.47037 5.487 5.50308 5.51863 5.53367 5.5482 5.56226 5.57584 5.58896 5.60163 5.61387 5.6257 5.63712 5.64814 5.65878 5.66905 5.67897 5.68853 5.69777 5.70667 5.71526 5.72355 5.73154 5.73925 5.74669 5.75386 5.76077 5.76743 5.77386 5.78005 5.78602 5.79177 5.79732 5.80266 5.80781 5.81278 5.81756 5.82217 5.82661 5.83089 5.83502 5.83899 5.84282 5.84651 5.85006 5.85348 5.85678 5.85996 5.86302 5.86597
5.79698 5.79182 5.7865 5.78102 5.77537 5.76956 5.76357 5.75741 5.75106 5.74454 5.73784 5.73094 5.72386 5.71659 5.70912 5.70146 5.69361 5.68555 5.6773 5.66885 5.6602 5.65135 5.64231 5.63306 5.62363 5.614 5.60418 5.59417 5.58399 5.57362 5.56309 5.5524 5.54154 5.53055 5.51941 5.50815 5.49677 5.48529 5.47372 5.46208 5.45038 5.43864 5.42688 5.41512 5.40338 5.39168 5.38005 5.36851 5.35708 5.3458 5.33468 5.32377 5.31308 5.30264 5.29249 5.28266 5.27317 5.26405 5.25534 5.24706 5.23923 5.23189 5.22505 5.21874 5.21299 5.2078 5.2032 5.1992 5.1958 5.19303 5.19087 5.18935 5.18844 5.18816 5.18849 5.18943 5.19095 5.19306 5.19573 5.19895 5.20268 5.20692 5.21164 5.2168 5.2224 5.22839 5.23476 5.24147 5.24851 5.25583 5.26341 5.27124 5.27927 5.28748 5.29586 5.30437 5.31299 5.3217 5.33048 5.3393 5.34815 5.357 5.36584 5.37465 5.38342 5.39212 5.40076 5.4093 5.41774 5.42607 5.43427 5.44235 5.45028 5.45806 5.46568 5.47313 5.48042 5.48753 5.49446 5.5012 5.50775 5.51412 5.52029 5.52626 5.53204 5.53763 5.54301 5.5482 5.5532 5.558 5.56261 5.56703 5.57126 5.57531 5.57918 5.58287 5.58638 5.58972 5.5929 5.59591 5.59876 5.60146 5.60401 5.60641 5.60866 5.61078 5.61277 5.61463 5.61636 5.61796 5.61946 5.62083 5.6221 5.62325 5.6243 5.62525 5.6261 5.62685 5.6275 5.62806 5.62853 5.6289 5.62918 5.62936 5.62946 5.62946 5.62936 5.62918 5.62889 5.62851 5.62802 5.62744 5.62675 5.62595 5.62503 5.62401 5.62286 5.62159 5.62019 5.61866 5.61699 5.61518 5.61323 5.61112 5.60886 5.60643 5.60384 5.60107 5.59812 5.59498 5.59166 5.58813 5.5844 5.58046 5.57629 5.57191 5.56729 5.56243 5.55733 5.55197 5.54635 5.54046 5.53429 5.52784 5.5211 5.51405 5.50669 5.49901 5.491 5.48265 5.47395 5.46489 5.45546 5.44564 5.43543 5.42481 5.41378 5.40231 5.3904 5.37802 5.36518 5.35184 5.338 5.32364 5.30875 5.2933 5.27729 5.26069 5.24348 5.22566 5.2072 5.18808 5.16829 5.14781 5.12662 5.10471 5.08205 5.05863 5.03444 5.00946 4.98367 4.95707 4.92965 4.90139 4.87228 4.84233 4.81154 4.77989 4.7474 4.71409 4.67995 4.64501 4.60931 4.57287 4.53573 4.49794 4.45958 4.4207 4.38141 4.3418 4.302 4.26215 4.22243 4.18302 4.14417 4.10614 4.06924 4.03386 4.0004 3.96939 3.9414 3.91711 3.89731 3.88282 3.87444 3.87275 3.87789 3.88954 3.90703 3.92956 3.9563 3.98654 4.01963 4.05504 4.09229 4.13099 4.1708 4.21141 4.25259 4.2941 4.33578 4.37745 4.41899 4.46027 4.5012 4.54169 4.58166 4.62106 4.65984 4.69794 4.73535 4.77202 4.80794 4.84308 4.87744 4.911 4.94377 4.97572 5.00688 5.03723 5.06678 5.09554 5.12352 5.15072 5.17715 5.20283 5.22777 5.25197 5.27546 5.29824 5.32033 5.34174 5.36249 5.3826 5.40207 5.42093 5.43918 5.45685 5.47395 5.49049 5.50648 5.52195 5.53691 5.55136 5.56534 5.57884 5.59188 5.60448 5.61665 5.62841 5.63976 5.65071 5.66129 5.6715 5.68135 5.69085 5.70002 5.70887 5.71741 5.72564 5.73358 5.74124 5.74862 5.75574 5.76261 5.76922 5.7756 5.78175 5.78768 5.79339 5.7989 5.8042 5.80931 5.81424 5.81899 5.82356 5.82797 5.83222 5.83631 5.84025 5.84404 5.8477 5.85123 5.85462 5.85789 5.86104 5.86408 5.867
5.8005 5.79548 5.79031 5.78498 5.77949 5.77384 5.76803 5.76205 5.7559 5.74957 5.74307 5.73639 5.72953 5.72248 5.71526 5.70784 5.70025 5.69246 5.68448 5.67632 5.66797 5.65943 5.6507 5.64179 5.63269 5.62342 5.61396 5.60434 5.59454 5.58458 5.57446 5.5642 5.55378 5.54324 5.53257 5.52178 5.51089 5.49991 5.48885 5.47773 5.46657 5.45537 5.44416 5.43296 5.42178 5.41066 5.3996 5.38863 5.37779 5.36708 5.35655 5.34621 5.33608 5.32621 5.31661 5.30732 5.29836 5.28975 5.28153 5.27371 5.26633 5.25941 5.25297 5.24703 5.24161 5.23672 5.23238 5.22861 5.22541 5.22279 5.22076 5.21931 5.21844 5.21816 5.21846 5.21933 5.22075 5.22272 5.22522 5.22823 5.23173 5.23571 5.24014 5.245 5.25026 5.25591 5.26191 5.26824 5.27487 5.28179 5.28896 5.29636 5.30396 5.31174 5.31968 5.32775 5.33594 5.34421 5.35255 5.36094 5.36935 5.37778 5.38621 5.39461 5.40297 5.41128 5.41952 5.42768 5.43575 5.44372 5.45158 5.45931 5.46691 5.47437 5.48168 5.48884 5.49584 5.50267 5.50933 5.51582 5.52213 5.52826 5.53421 5.53998 5.54556 5.55095 5.55616 5.56118 5.56602 5.57067 5.57514 5.57943 5.58354 5.58747 5.59123 5.59482 5.59824 5.6015 5.6046 5.60753 5.61032 5.61296 5.61545 5.6178 5.62001 5.62208 5.62403 5.62585 5.62755 5.62912 5.63059 5.63194 5.63317 5.63431 5.63533 5.63626 5.63709 5.63782 5.63845 5.63898 5.63943 5.63978 5.64003 5.6402 5.64027 5.64024 5.64013 5.63991 5.6396 5.6392 5.63869 5.63807 5.63735 5.63653 5.63559 5.63453 5.63336 5.63206 5.63064 5.62908 5.62739 5.62555 5.62358 5.62145 5.61916 5.61672 5.6141 5.61132 5.60835 5.6052 5.60186 5.59832 5.59458 5.59063 5.58646 5.58207 5.57745 5.57259 5.56749 5.56213 5.55652 5.55063 5.54447 5.53803 5.53129 5.52425 5.5169 5.50923 5.50123 5.49289 5.4842 5.47515 5.46573 5.45592 5.44572 5.43511 5.42408 5.41261 5.4007 5.38832 5.37548 5.36213 5.34829 5.33392 5.31901 5.30355 5.28752 5.2709 5.25367 5.23582 5.21732 5.19817 5.17834 5.15781 5.13657 5.1146 5.09188 5.06839 5.04412 5.01906 4.99318 4.96649 4.93895 4.91057 4.88134 4.85124 4.82029 4.78847 4.75579 4.72226 4.68789 4.6527 4.61671 4.57995 4.54246 4.50429 4.46549 4.42615 4.38633 4.34613 4.30569 4.26512 4.22461 4.18432 4.1445 4.10539 4.06731 4.0306 3.99571 3.96311 3.93342 3.90735 3.88576 3.86966 3.86016 3.85815 3.8639 3.87685 3.896 3.92027 3.94871 3.98054 4.0151 4.05183 4.09027 4.13004 4.17079 4.21225 4.25417 4.29635 4.33861 4.38079 4.42277 4.46443 4.50569 4.54645 4.58666 4.62625 4.66518 4.70341 4.74091 4.77765 4.81362 4.84878 4.88315 4.9167 4.94944 4.98136 5.01246 5.04275 5.07224 5.10092 5.12882 5.15593 5.18228 5.20786 5.2327 5.2568 5.28019 5.30286 5.32485 5.34616 5.36681 5.38682 5.40619 5.42494 5.4431 5.46067 5.47767 5.49411 5.51002 5.52539 5.54026 5.55463 5.56851 5.58193 5.5949 5.60742 5.61951 5.63119 5.64246 5.65334 5.66385 5.67399 5.68377 5.69321 5.70232 5.71111 5.71959 5.72776 5.73565 5.74325 5.75058 5.75765 5.76446 5.77103 5.77736 5.78346 5.78935 5.79502 5.80048 5.80574 5.81082 5.8157 5.82041 5.82495 5.82932 5.83354 5.83759 5.8415 5.84527 5.84889 5.85239 5.85575 5.859 5.86212 5.86513 5.86802
5.80398 5.7991 5.79408 5.78891 5.78358 5.7781 5.77246 5.76665 5.76069 5.75456 5.74826 5.74178 5.73514 5.72832 5.72133 5.71416 5.70682 5.69929 5.69159 5.68371 5.67565 5.66741 5.65899 5.65041 5.64165 5.63272 5.62362 5.61436 5.60495 5.59538 5.58567 5.57581 5.56583 5.55572 5.5455 5.53518 5.52476 5.51426 5.5037 5.49308 5.48243 5.47175 5.46107 5.4504 5.43977 5.42919 5.41868 5.40826 5.39797 5.38782 5.37783 5.36803 5.35845 5.34911 5.34003 5.33125 5.32278 5.31466 5.3069 5.29952 5.29256 5.28604 5.27997 5.27437 5.26926 5.26465 5.26057 5.25701 5.25399 5.25152 5.24959 5.24822 5.24739 5.24712 5.24738 5.24818 5.24951 5.25135 5.25368 5.2565 5.25979 5.26352 5.26769 5.27225 5.27721 5.28252 5.28818 5.29415 5.30041 5.30694 5.31372 5.32071 5.32791 5.33528 5.3428 5.35045 5.35822 5.36607 5.37399 5.38197 5.38997 5.398 5.40602 5.41402 5.42199 5.42992 5.43779 5.44559 5.4533 5.46092 5.46844 5.47584 5.48312 5.49027 5.49728 5.50415 5.51087 5.51743 5.52384 5.53008 5.53615 5.54206 5.54779 5.55335 5.55873 5.56394 5.56897 5.57382 5.5785 5.58301 5.58734 5.59149 5.59548 5.5993 5.60295 5.60644 5.60977 5.61294 5.61596 5.61882 5.62154 5.62412 5.62655 5.62884 5.63101 5.63304 5.63494 5.63672 5.63838 5.63993 5.64136 5.64268 5.64389 5.645 5.646 5.6469 5.6477 5.64841 5.64902 5.64953 5.64995 5.65028 5.65052 5.65066 5.6507 5.65066 5.65052 5.65028 5.64995 5.64951 5.64898 5.64834 5.6476 5.64674 5.64578 5.6447 5.6435 5.64218 5.64073 5.63915 5.63744 5.63558 5.63358 5.63143 5.62913 5.62666 5.62403 5.62123 5.61825 5.61509 5.61174 5.6082 5.60445 5.60049 5.59632 5.59193 5.58731 5.58245 5.57735 5.572 5.56639 5.56051 5.55436 5.54793 5.5412 5.53417 5.52684 5.51918 5.51119 5.50287 5.49419 5.48516 5.47575 5.46595 5.45577 5.44517 5.43415 5.4227 5.41079 5.39843 5.38559 5.37225 5.35841 5.34404 5.32914 5.31368 5.29764 5.28101 5.26378 5.24592 5.22741 5.20824 5.18839 5.16784 5.14658 5.12458 5.10182 5.0783 5.05399 5.02888 5.00296 4.9762 4.9486 4.92015 4.89083 4.86065 4.82959 4.79766 4.76486 4.73119 4.69666 4.6613 4.62511 4.58814 4.55041 4.51196 4.47287 4.43318 4.39298 4.35237 4.31145 4.27036 4.22925 4.18831 4.14775 4.10782 4.06882 4.03108 3.99503 3.96114 3.92999 3.90231 3.87897 3.86111 3.85021 3.84778 3.85435 3.86886 3.88973 3.91566 3.9456 3.97876 4.01449 4.05226 4.09162 4.13219 4.17365 4.21573 4.25819 4.30084 4.3435 4.38603 4.4283 4.47021 4.51167 4.5526 4.59294 4.63263 4.67163 4.7099 4.74742 4.78417 4.82011 4.85525 4.88956 4.92306 4.95572 4.98756 5.01858 5.04878 5.07816 5.10675 5.13453 5.16153 5.18776 5.21323 5.23795 5.26193 5.2852 5.30776 5.32963 5.35082 5.37135 5.39124 5.4105 5.42914 5.44719 5.46465 5.48154 5.49788 5.51368 5.52896 5.54373 5.558 5.5718 5.58512 5.598 5.61043 5.62244 5.63404 5.64523 5.65604 5.66647 5.67654 5.68625 5.69562 5.70467 5.71339 5.7218 5.72991 5.73774 5.74529 5.75256 5.75957 5.76634 5.77285 5.77914 5.78519 5.79103 5.79665 5.80207 5.80729 5.81232 5.81717 5.82184 5.82634 5.83068 5.83485 5.83888 5.84275 5.84648 5.85008 5.85354 5.85688 5.86009 5.86319 5.86617 5.86904
5.80744 5.8027 5.79782 5.7928 5.78763 5.78231 5.77684 5.77122 5.76544 5.7595 5.75339 5.74713 5.7407 5.73411 5.72734 5.72041 5.71332 5.70605 5.69861 5.69101 5.68323 5.67529 5.66718 5.65891 5.65048 5.64189 5.63314 5.62424 5.61519 5.60601 5.59669 5.58724 5.57767 5.56799 5.5582 5.54832 5.53836 5.52833 5.51824 5.50811 5.49795 5.48777 5.4776 5.46744 5.45732 5.44726 5.43728 5.42739 5.41762 5.40799 5.39853 5.38925 5.38018 5.37134 5.36276 5.35445 5.34645 5.33878 5.33146 5.3245 5.31794 5.31178 5.30606 5.30078 5.29596 5.29162 5.28777 5.28441 5.28156 5.27923 5.2774 5.2761 5.27531 5.27504 5.27528 5.27602 5.27725 5.27897 5.28116 5.2838 5.28688 5.29039 5.2943 5.29859 5.30325 5.30826 5.31359 5.31922 5.32513 5.33129 5.33769 5.34431 5.35112 5.35809 5.36522 5.37247 5.37984 5.38729 5.39482 5.40239 5.41001 5.41764 5.42528 5.4329 5.4405 5.44806 5.45557 5.46301 5.47038 5.47767 5.48485 5.49194 5.49891 5.50576 5.51248 5.51907 5.52552 5.53182 5.53797 5.54397 5.54981 5.5555 5.56102 5.56637 5.57157 5.57659 5.58145 5.58614 5.59066 5.59502 5.59921 5.60324 5.6071 5.61081 5.61435 5.61774 5.62098 5.62406 5.627 5.62979 5.63243 5.63494 5.63732 5.63956 5.64167 5.64365 5.64551 5.64725 5.64887 5.65038 5.65178 5.65307 5.65425 5.65533 5.65631 5.65718 5.65796 5.65864 5.65923 5.65972 5.66012 5.66043 5.66064 5.66076 5.66078 5.66071 5.66055 5.66029 5.65993 5.65947 5.65892 5.65825 5.65749 5.65661 5.65562 5.65452 5.6533 5.65195 5.65048 5.64888 5.64715 5.64527 5.64325 5.64109 5.63877 5.63629 5.63365 5.63083 5.62784 5.62467 5.62131 5.61776 5.61401 5.61005 5.60588 5.60149 5.59687 5.59202 5.58692 5.58158 5.57598 5.57011 5.56397 5.55755 5.55084 5.54383 5.53651 5.52887 5.5209 5.51259 5.50394 5.49492 5.48553 5.47576 5.46559 5.45501 5.44401 5.43258 5.4207 5.40835 5.39553 5.38221 5.36839 5.35404 5.33915 5.3237 5.30767 5.29106 5.27383 5.25598 5.23748 5.21832 5.19848 5.17793 5.15667 5.13467 5.11192 5.08839 5.06408 5.03896 5.01302 4.98625 4.95863 4.93016 4.90082 4.8706 4.83951 4.80753 4.77468 4.74094 4.70635 4.6709 4.63461 4.59753 4.55967 4.52108 4.48182 4.44194 4.40153 4.36067 4.31947 4.27807 4.23661 4.19527 4.15426 4.11382 4.07424 4.03585 3.99906 3.96431 3.93218 3.90334 3.87864 3.85919 3.84663 3.84356 3.85133 3.86748 3.88982 3.91696 3.94793 3.98197 4.01845 4.05687 4.09678 4.13783 4.1797 4.22212 4.26488 4.30778 4.35064 4.39333 4.43573 4.47774 4.51926 4.56023 4.60058 4.64027 4.67924 4.71748 4.75494 4.79161 4.82747 4.86251 4.89673 4.93011 4.96266 4.99438 5.02527 5.05533 5.08458 5.11303 5.14067 5.16754 5.19362 5.21895 5.24353 5.26738 5.2905 5.31293 5.33466 5.35572 5.37612 5.39588 5.41501 5.43353 5.45145 5.4688 5.48557 5.5018 5.51749 5.53266 5.54732 5.56149 5.57518 5.58841 5.60119 5.61353 5.62545 5.63696 5.64807 5.6588 5.66915 5.67914 5.68878 5.69808 5.70705 5.7157 5.72405 5.7321 5.73986 5.74735 5.75457 5.76152 5.76823 5.7747 5.78093 5.78693 5.79272 5.7983 5.80367 5.80885 5.81384 5.81864 5.82327 5.82774 5.83203 5.83617 5.84016 5.844 5.8477 5.85126 5.85469 5.858 5.86118 5.86425 5.8672 5.87004
5.81086 5.80627 5.80153 5.79666 5.79165 5.78649 5.78119 5.77574 5.77014 5.76438 5.75848 5.75242 5.7462 5.73982 5.73329 5.72659 5.71974 5.71272 5.70555 5.69821 5.69072 5.68307 5.67526 5.6673 5.65918 5.65092 5.64251 5.63396 5.62528 5.61646 5.60752 5.59846 5.58929 5.58002 5.57066 5.56121 5.55169 5.54211 5.53248 5.52281 5.51312 5.50342 5.49373 5.48407 5.47445 5.46488 5.4554 5.44601 5.43674 5.42761 5.41864 5.40985 5.40126 5.3929 5.38479 5.37694 5.36938 5.36213 5.35522 5.34865 5.34246 5.33666 5.33126 5.32628 5.32174 5.31764 5.31401 5.31084 5.30815 5.30595 5.30422 5.30299 5.30223 5.30197 5.30218 5.30286 5.30401 5.30561 5.30766 5.31014 5.31303 5.31632 5.31999 5.32403 5.32842 5.33313 5.33815 5.34346 5.34903 5.35486 5.3609 5.36716 5.3736 5.3802 5.38695 5.39383 5.40081 5.40788 5.41503 5.42223 5.42946 5.43672 5.44399 5.45125 5.45849 5.4657 5.47286 5.47997 5.487 5.49396 5.50083 5.50761 5.51428 5.52084 5.52728 5.5336 5.53978 5.54583 5.55174 5.55751 5.56312 5.56859 5.5739 5.57906 5.58407 5.58891 5.5936 5.59813 5.6025 5.60671 5.61076 5.61466 5.6184 5.62199 5.62543 5.62872 5.63186 5.63486 5.63771 5.64043 5.643 5.64545 5.64776 5.64994 5.652 5.65393 5.65575 5.65745 5.65903 5.6605 5.66187 5.66312 5.66427 5.66532 5.66627 5.66712 5.66788 5.66853 5.66909 5.66956 5.66994 5.67022 5.67041 5.67051 5.67051 5.67042 5.67023 5.66995 5.66957 5.66909 5.66851 5.66783 5.66704 5.66614 5.66513 5.664 5.66276 5.6614 5.65991 5.65829 5.65653 5.65464 5.65261 5.65043 5.64809 5.6456 5.64295 5.64012 5.63713 5.63395 5.63059 5.62703 5.62328 5.61932 5.61515 5.61076 5.60615 5.6013 5.59622 5.59088 5.58529 5.57944 5.57332 5.56691 5.56022 5.55323 5.54593 5.53831 5.53036 5.52208 5.51345 5.50446 5.49509 5.48535 5.47521 5.46466 5.45369 5.44228 5.43043 5.41811 5.40531 5.39203 5.37823 5.36391 5.34905 5.33363 5.31764 5.30105 5.28386 5.26604 5.24757 5.22844 5.20862 5.18811 5.16688 5.14491 5.12218 5.09869 5.07441 5.04932 5.02341 4.99667 4.96909 4.94064 4.91133 4.88114 4.85007 4.81812 4.78529 4.75157 4.71699 4.68155 4.64528 4.60819 4.57033 4.53173 4.49244 4.45253 4.41208 4.37117 4.3299 4.28842 4.24686 4.20541 4.16427 4.12367 4.08391 4.04532 4.00828 3.97327 3.94081 3.91159 3.88643 3.86637 3.85294 3.84923 3.85797 3.87482 3.89765 3.92518 3.95646 3.99074 4.02743 4.06601 4.10606 4.14721 4.18915 4.23163 4.27441 4.31731 4.36016 4.40282 4.44517 4.48711 4.52855 4.56943 4.60967 4.64924 4.68809 4.72619 4.76351 4.80003 4.83574 4.87062 4.90468 4.93789 4.97027 5.00182 5.03254 5.06244 5.09151 5.11979 5.14726 5.17396 5.19988 5.22504 5.24946 5.27314 5.29611 5.31838 5.33996 5.36087 5.38112 5.40074 5.41973 5.43811 5.4559 5.47311 5.48976 5.50586 5.52143 5.53648 5.55103 5.56509 5.57868 5.5918 5.60448 5.61672 5.62855 5.63996 5.65098 5.66162 5.67189 5.6818 5.69136 5.70058 5.70948 5.71806 5.72634 5.73432 5.74202 5.74944 5.7566 5.7635 5.77015 5.77656 5.78273 5.78869 5.79443 5.79995 5.80528 5.81041 5.81536 5.82012 5.82471 5.82913 5.83339 5.83749 5.84144 5.84525 5.84891 5.85244 5.85584 5.85911 5.86227 5.8653 5.86822 5.87104
5.81426 5.8098 5.80521 5.80048 5.79562 5.79062 5.78549 5.78021 5.77479 5.76922 5.76351 5.75764 5.75163 5.74547 5.73916 5.73269 5.72608 5.71931 5.71239 5.70532 5.6981 5.69073 5.68321 5.67555 5.66775 5.65981 5.65173 5.64352 5.63518 5.62673 5.61816 5.60948 5.6007 5.59183 5.58287 5.57384 5.56474 5.55559 5.5464 5.53718 5.52794 5.5187 5.50948 5.50028 5.49113 5.48204 5.47303 5.46412 5.45533 5.44667 5.43817 5.42985 5.42172 5.41381 5.40613 5.39871 5.39157 5.38473 5.3782 5.372 5.36616 5.36068 5.35559 5.35089 5.34661 5.34275 5.33932 5.33633 5.33379 5.3317 5.33007 5.3289 5.32818 5.32792 5.3281 5.32874 5.32981 5.3313 5.33322 5.33554 5.33825 5.34134 5.34479 5.34859 5.35272 5.35716 5.36189 5.36689 5.37215 5.37765 5.38336 5.38927 5.39536 5.40161 5.408 5.41452 5.42114 5.42785 5.43463 5.44147 5.44834 5.45525 5.46216 5.46908 5.47597 5.48284 5.48967 5.49645 5.50317 5.50981 5.51638 5.52286 5.52924 5.53552 5.54169 5.54774 5.55367 5.55947 5.56514 5.57068 5.57608 5.58134 5.58645 5.59141 5.59623 5.6009 5.60542 5.60979 5.61401 5.61808 5.622 5.62577 5.62939 5.63287 5.6362 5.63939 5.64243 5.64534 5.64812 5.65075 5.65326 5.65563 5.65788 5.66001 5.66201 5.6639 5.66566 5.66732 5.66886 5.6703 5.67162 5.67284 5.67396 5.67498 5.6759 5.67673 5.67745 5.67809 5.67862 5.67907 5.67942 5.67968 5.67984 5.67992 5.6799 5.67979 5.67958 5.67927 5.67887 5.67837 5.67777 5.67707 5.67626 5.67534 5.67431 5.67316 5.6719 5.67052 5.66901 5.66738 5.66561 5.6637 5.66165 5.65946 5.65712 5.65461 5.65195 5.64912 5.64612 5.64293 5.63957 5.63601 5.63226 5.6283 5.62414 5.61976 5.61515 5.61032 5.60524 5.59992 5.59435 5.58851 5.58241 5.57602 5.56935 5.56238 5.5551 5.54751 5.53959 5.53134 5.52274 5.51378 5.50445 5.49473 5.48463 5.47411 5.46318 5.45181 5.44 5.42772 5.41496 5.40172 5.38796 5.37369 5.35887 5.3435 5.32755 5.31101 5.29387 5.27609 5.25768 5.2386 5.21884 5.19838 5.17721 5.1553 5.13265 5.10922 5.085 5.05999 5.03415 5.00749 4.97998 4.95162 4.9224 4.8923 4.86132 4.82946 4.79673 4.76312 4.72864 4.69331 4.65715 4.62018 4.58243 4.54396 4.5048 4.46503 4.42471 4.38394 4.34284 4.30151 4.26012 4.21885 4.1779 4.13752 4.098 4.05967 4.02293 3.98826 3.95622 3.92751 3.90299 3.88382 3.87164 3.86873 3.87609 3.8918 3.91381 3.94071 3.97147 4.00532 4.04163 4.07987 4.11961 4.16047 4.20214 4.24436 4.28689 4.32954 4.37215 4.41457 4.45669 4.49839 4.5396 4.58024 4.62026 4.65959 4.69821 4.73608 4.77317 4.80946 4.84494 4.8796 4.91343 4.94642 4.97859 5.00992 5.04042 5.0701 5.09897 5.12704 5.15431 5.18081 5.20653 5.2315 5.25573 5.27923 5.30202 5.32411 5.34552 5.36627 5.38636 5.40581 5.42465 5.44288 5.46053 5.47759 5.49411 5.51007 5.52551 5.54044 5.55486 5.56881 5.58228 5.59529 5.60786 5.62 5.63172 5.64304 5.65397 5.66451 5.67469 5.68451 5.69399 5.70313 5.71195 5.72046 5.72867 5.73658 5.74421 5.75157 5.75866 5.76549 5.77209 5.77844 5.78456 5.79046 5.79614 5.80162 5.8069 5.81199 5.81689 5.8216 5.82615 5.83053 5.83475 5.83881 5.84272 5.84649 5.85012 5.85362 5.85698 5.86023 5.86335 5.86635 5.86925 5.87203
5.81762 5.81329 5.80884 5.80426 5.79955 5.79471 5.78974 5.78463 5.77938 5.77399 5.76847 5.7628 5.757 5.75105 5.74495 5.73871 5.73233 5.7258 5.71913 5.71232 5.70537 5.69827 5.69104 5.68368 5.67617 5.66854 5.66079 5.65291 5.64491 5.6368 5.62859 5.62028 5.61187 5.60338 5.59482 5.58619 5.5775 5.56876 5.55999 5.5512 5.5424 5.5336 5.52482 5.51607 5.50737 5.49874 5.49018 5.48173 5.47339 5.46518 5.45712 5.44924 5.44154 5.43406 5.4268 5.41979 5.41304 5.40657 5.40041 5.39456 5.38904 5.38387 5.37907 5.37464 5.3706 5.36695 5.36372 5.3609 5.3585 5.35652 5.35498 5.35386 5.35318 5.35292 5.35309 5.35367 5.35466 5.35606 5.35786 5.36003 5.36257 5.36547 5.36872 5.37229 5.37617 5.38035 5.38481 5.38953 5.39449 5.39968 5.40508 5.41066 5.41642 5.42234 5.42839 5.43456 5.44083 5.4472 5.45363 5.46013 5.46666 5.47322 5.4798 5.48638 5.49295 5.49949 5.506 5.51246 5.51887 5.52522 5.53149 5.53769 5.54379 5.5498 5.5557 5.5615 5.56718 5.57275 5.57819 5.5835 5.58869 5.59374 5.59866 5.60343 5.60807 5.61257 5.61692 5.62114 5.62521 5.62914 5.63292 5.63657 5.64007 5.64343 5.64666 5.64975 5.6527 5.65552 5.65821 5.66077 5.6632 5.66551 5.6677 5.66977 5.67171 5.67355 5.67527 5.67688 5.67838 5.67977 5.68106 5.68225 5.68334 5.68432 5.68521 5.68601 5.68671 5.68731 5.68783 5.68825 5.68857 5.68881 5.68895 5.68901 5.68897 5.68883 5.6886 5.68828 5.68786 5.68734 5.68671 5.68599 5.68516 5.68422 5.68318 5.68201 5.68074 5.67934 5.67781 5.67616 5.67438 5.67246 5.6704 5.6682 5.66584 5.66333 5.66066 5.65783 5.65482 5.65164 5.64827 5.64472 5.64097 5.63702 5.63286 5.62849 5.62389 5.61907 5.61401 5.60871 5.60315 5.59733 5.59125 5.58489 5.57824 5.5713 5.56405 5.55649 5.54861 5.54039 5.53182 5.5229 5.5136 5.50393 5.49387 5.4834 5.47251 5.46119 5.44942 5.43719 5.42449 5.41129 5.39759 5.38337 5.36862 5.3533 5.33742 5.32095 5.30387 5.28617 5.26783 5.24883 5.22915 5.20878 5.1877 5.16588 5.14332 5.11999 5.09588 5.07098 5.04527 5.01873 4.99135 4.96312 4.93404 4.90409 4.87327 4.84158 4.80902 4.7756 4.74132 4.7062 4.67026 4.63352 4.59602 4.55781 4.51893 4.47945 4.43946 4.39903 4.35829 4.31736 4.27641 4.23561 4.19517 4.15536 4.11647 4.07884 4.0429 4.00914 3.97815 3.95066 3.92757 3.91002 3.89938 3.89698 3.90323 3.91727 3.93769 3.9632 3.99277 4.02558 4.06098 4.09841 4.13741 4.17761 4.21867 4.26032 4.30233 4.34449 4.38663 4.42861 4.47031 4.51161 4.55243 4.5927 4.63236 4.67135 4.70963 4.74717 4.78394 4.81992 4.8551 4.88946 4.923 4.95572 4.98761 5.01867 5.04891 5.07834 5.10696 5.13479 5.16183 5.18809 5.21359 5.23834 5.26236 5.28566 5.30824 5.33014 5.35136 5.37192 5.39183 5.41112 5.42978 5.44785 5.46534 5.48225 5.49861 5.51444 5.52974 5.54453 5.55882 5.57264 5.58599 5.59888 5.61134 5.62337 5.63498 5.6462 5.65702 5.66747 5.67756 5.68729 5.69668 5.70574 5.71447 5.7229 5.73103 5.73887 5.74643 5.75372 5.76074 5.76752 5.77405 5.78034 5.7864 5.79225 5.79788 5.8033 5.80853 5.81357 5.81842 5.82309 5.8276 5.83193 5.83611 5.84013 5.84401 5.84774 5.85133 5.85479 5.85813 5.86133 5.86442 5.8674 5.87026 5.87302
5.82094 5.81674 5.81243 5.80799 5.80343 5.79875 5.79393 5.78899 5.78392 5.77871 5.77337 5.7679 5.76229 5.75654 5.75066 5.74464 5.73849 5.7322 5.72577 5.71921 5.71252 5.7057 5.69874 5.69166 5.68445 5.67712 5.66968 5.66212 5.65445 5.64668 5.63881 5.63086 5.62281 5.61469 5.60651 5.59826 5.58997 5.58163 5.57327 5.56489 5.5565 5.54812 5.53977 5.53145 5.52318 5.51497 5.50685 5.49883 5.49091 5.48313 5.4755 5.46803 5.46075 5.45367 5.4468 5.44017 5.43379 5.42768 5.42186 5.41634 5.41113 5.40625 5.40172 5.39754 5.39373 5.39029 5.38723 5.38457 5.3823 5.38043 5.37897 5.37791 5.37726 5.377 5.37715 5.37769 5.37861 5.37992 5.3816 5.38363 5.38602 5.38875 5.39179 5.39515 5.39881 5.40274 5.40694 5.41139 5.41607 5.42097 5.42607 5.43135 5.43679 5.44239 5.44811 5.45396 5.45991 5.46594 5.47205 5.47821 5.48442 5.49066 5.49691 5.50317 5.50942 5.51565 5.52185 5.52802 5.53413 5.54019 5.54618 5.5521 5.55793 5.56368 5.56933 5.57488 5.58032 5.58566 5.59088 5.59598 5.60095 5.60581 5.61053 5.61512 5.61959 5.62392 5.62811 5.63217 5.6361 5.63989 5.64354 5.64706 5.65044 5.6537 5.65682 5.65981 5.66267 5.6654 5.66801 5.67049 5.67285 5.67509 5.67721 5.67922 5.68111 5.68289 5.68456 5.68613 5.68759 5.68894 5.69019 5.69134 5.6924 5.69335 5.69421 5.69498 5.69565 5.69623 5.69672 5.69711 5.69742 5.69763 5.69775 5.69778 5.69772 5.69756 5.69731 5.69697 5.69653 5.69599 5.69535 5.69461 5.69376 5.6928 5.69174 5.69056 5.68927 5.68786 5.68632 5.68466 5.68286 5.68093 5.67886 5.67665 5.67429 5.67177 5.6691 5.66626 5.66325 5.66007 5.65671 5.65316 5.64942 5.64547 5.64132 5.63696 5.63238 5.62757 5.62253 5.61725 5.61171 5.60592 5.59986 5.59353 5.58691 5.58 5.57279 5.56526 5.55741 5.54923 5.54071 5.53182 5.52258 5.51295 5.50294 5.49252 5.48168 5.47042 5.45871 5.44654 5.4339 5.42077 5.40714 5.39299 5.37831 5.36307 5.34727 5.33088 5.31389 5.29628 5.27804 5.25914 5.23957 5.21931 5.19834 5.17665 5.15422 5.13103 5.10706 5.08231 5.05676 5.03039 5.00319 4.97516 4.94627 4.91654 4.88595 4.8545 4.82219 4.78904 4.75504 4.72023 4.68461 4.64822 4.61109 4.57328 4.53482 4.49581 4.4563 4.41641 4.37624 4.33594 4.29566 4.25559 4.21597 4.17705 4.13913 4.10259 4.06785 4.03543 4.00592 3.98005 3.95869 3.9428 3.93343 3.93136 3.93682 3.94935 3.96801 3.99179 4.01975 4.0511 4.08516 4.12139 4.1593 4.1985 4.23865 4.27945 4.32068 4.36211 4.40358 4.44492 4.48601 4.52675 4.56704 4.6068 4.64597 4.6845 4.72234 4.75946 4.79582 4.83142 4.86622 4.90022 4.93341 4.96578 4.99734 5.02809 5.05802 5.08716 5.11549 5.14304 5.16981 5.19581 5.22106 5.24557 5.26935 5.29241 5.31478 5.33646 5.35747 5.37783 5.39755 5.41664 5.43513 5.45302 5.47033 5.48708 5.50329 5.51895 5.5341 5.54875 5.56291 5.57659 5.5898 5.60257 5.61491 5.62682 5.63832 5.64943 5.66015 5.6705 5.68048 5.69012 5.69942 5.70839 5.71704 5.72539 5.73344 5.7412 5.74869 5.7559 5.76286 5.76957 5.77603 5.78226 5.78826 5.79405 5.79963 5.805 5.81017 5.81516 5.81996 5.82459 5.82905 5.83334 5.83748 5.84146 5.84529 5.84899 5.85254 5.85597 5.85927 5.86244 5.8655 5.86844 5.87127 5.874
5.82422 5.82015 5.81597 5.81168 5.80727 5.80273 5.79807 5.79329 5.78839 5.78336 5.7782 5.77292 5.7675 5.76196 5.75629 5.75048 5.74455 5.73849 5.73231 5.72599 5.71955 5.71299 5.7063 5.6995 5.69258 5.68554 5.6784 5.67115 5.6638 5.65636 5.64882 5.64121 5.63351 5.62575 5.61793 5.61005 5.60214 5.59418 5.58621 5.57822 5.57024 5.56226 5.55431 5.5464 5.53854 5.53075 5.52304 5.51542 5.50792 5.50054 5.49331 5.48624 5.47934 5.47264 5.46615 5.45988 5.45385 5.44808 5.44258 5.43736 5.43245 5.42784 5.42356 5.41962 5.41602 5.41277 5.40989 5.40737 5.40523 5.40346 5.40207 5.40107 5.40044 5.40019 5.40032 5.40082 5.40168 5.4029 5.40447 5.40638 5.40862 5.41118 5.41404 5.4172 5.42064 5.42435 5.4283 5.4325 5.43691 5.44153 5.44635 5.45134 5.45648 5.46178 5.4672 5.47273 5.47837 5.48409 5.48988 5.49573 5.50163 5.50755 5.5135 5.51945 5.5254 5.53133 5.53724 5.54312 5.54895 5.55473 5.56045 5.5661 5.57167 5.57717 5.58257 5.58788 5.5931 5.59821 5.60321 5.6081 5.61288 5.61754 5.62207 5.62649 5.63078 5.63495 5.63898 5.64289 5.64668 5.65033 5.65386 5.65725 5.66052 5.66366 5.66668 5.66957 5.67234 5.67499 5.67751 5.67992 5.6822 5.68438 5.68643 5.68838 5.69022 5.69194 5.69356 5.69508 5.6965 5.69781 5.69902 5.70014 5.70116 5.70208 5.70291 5.70364 5.70429 5.70484 5.7053 5.70567 5.70595 5.70614 5.70624 5.70625 5.70617 5.70599 5.70572 5.70536 5.7049 5.70434 5.70368 5.70293 5.70206 5.70109 5.70001 5.69882 5.69751 5.69609 5.69454 5.69287 5.69106 5.68912 5.68705 5.68483 5.68246 5.67994 5.67727 5.67443 5.67142 5.66824 5.66489 5.66134 5.65761 5.65367 5.64954 5.64519 5.64063 5.63584 5.63081 5.62555 5.62004 5.61428 5.60825 5.60195 5.59536 5.58849 5.58131 5.57383 5.56602 5.55788 5.5494 5.54057 5.53138 5.52181 5.51185 5.50149 5.49072 5.47951 5.46787 5.45578 5.44321 5.43016 5.41661 5.40255 5.38795 5.37281 5.35711 5.34082 5.32394 5.30644 5.28832 5.26954 5.2501 5.22998 5.20916 5.18762 5.16535 5.14234 5.11855 5.094 5.06864 5.04249 5.01552 4.98773 4.9591 4.92964 4.89934 4.8682 4.83623 4.80342 4.7698 4.73539 4.7002 4.66426 4.62763 4.59034 4.55245 4.51404 4.47519 4.436 4.3966 4.35712 4.31774 4.27865 4.24008 4.20232 4.16566 4.13049 4.09724 4.06642 4.03862 4.01453 3.99489 3.98052 3.97217 3.97035 3.97521 3.98645 4.00345 4.02543 4.0516 4.08124 4.1137 4.14844 4.18497 4.2229 4.26187 4.3016 4.34181 4.38231 4.4229 4.46343 4.50376 4.54378 4.58339 4.62252 4.66109 4.69904 4.73634 4.77294 4.80881 4.84393 4.87829 4.91186 4.94463 4.97661 5.00779 5.03817 5.06776 5.09655 5.12456 5.15179 5.17826 5.20397 5.22894 5.25318 5.2767 5.29951 5.32163 5.34308 5.36386 5.384 5.40351 5.4224 5.44068 5.45839 5.47552 5.49209 5.50812 5.52362 5.53862 5.55311 5.56712 5.58065 5.59373 5.60637 5.61858 5.63036 5.64175 5.65274 5.66335 5.67359 5.68347 5.69301 5.70221 5.71109 5.71965 5.72792 5.73588 5.74357 5.75097 5.75812 5.765 5.77164 5.77804 5.7842 5.79015 5.79587 5.80139 5.80671 5.81183 5.81676 5.82152 5.8261 5.83051 5.83476 5.83885 5.84279 5.84658 5.85024 5.85375 5.85714 5.8604 5.86354 5.86657 5.86948 5.87228 5.87498
5.82745 5.82352 5.81947 5.81532 5.81105 5.80666 5.80216 5.79754 5.7928 5.78794 5.78296 5.77786 5.77264 5.76729 5.76182 5.75623 5.75052 5.74468 5.73873 5.73265 5.72646 5.72015 5.71373 5.70719 5.70055 5.6938 5.68695 5.68 5.67296 5.66583 5.65862 5.65133 5.64397 5.63655 5.62908 5.62156 5.61401 5.60642 5.59882 5.59121 5.58361 5.57602 5.56846 5.56094 5.55347 5.54607 5.53875 5.53152 5.5244 5.51741 5.51056 5.50386 5.49734 5.49099 5.48485 5.47892 5.47323 5.46777 5.46257 5.45765 5.45301 5.44866 5.44462 5.44089 5.43749 5.43443 5.43171 5.42933 5.4273 5.42563 5.42432 5.42336 5.42276 5.42252 5.42263 5.42309 5.42389 5.42503 5.4265 5.42829 5.43039 5.43279 5.43548 5.43845 5.44169 5.44518 5.44891 5.45286 5.45703 5.46139 5.46593 5.47065 5.47551 5.48052 5.48565 5.49089 5.49623 5.50166 5.50715 5.5127 5.51829 5.52392 5.52957 5.53523 5.54089 5.54654 5.55217 5.55777 5.56333 5.56884 5.5743 5.57969 5.58502 5.59027 5.59544 5.60052 5.60551 5.6104 5.6152 5.61988 5.62447 5.62894 5.63329 5.63753 5.64166 5.64566 5.64955 5.65331 5.65696 5.66048 5.66388 5.66715 5.67031 5.67334 5.67625 5.67905 5.68172 5.68428 5.68673 5.68905 5.69127 5.69337 5.69537 5.69725 5.69903 5.70071 5.70228 5.70375 5.70512 5.70639 5.70756 5.70864 5.70962 5.71051 5.71131 5.71202 5.71263 5.71316 5.71359 5.71394 5.7142 5.71437 5.71444 5.71443 5.71433 5.71413 5.71384 5.71346 5.71298 5.71241 5.71173 5.71096 5.71008 5.7091 5.708 5.7068 5.70548 5.70404 5.70249 5.7008 5.69899 5.69705 5.69496 5.69274 5.69037 5.68785 5.68518 5.68234 5.67934 5.67616 5.67281 5.66928 5.66555 5.66164 5.65751 5.65318 5.64864 5.64387 5.63887 5.63363 5.62815 5.62242 5.61642 5.61015 5.60361 5.59677 5.58964 5.5822 5.57444 5.56635 5.55793 5.54915 5.54002 5.53051 5.52061 5.51032 5.49962 5.48849 5.47693 5.46491 5.45243 5.43947 5.42602 5.41205 5.39756 5.38253 5.36694 5.35077 5.33402 5.31666 5.29867 5.28005 5.26076 5.24081 5.22016 5.19881 5.17673 5.15392 5.13036 5.10603 5.08093 5.05503 5.02834 5.00084 4.97253 4.9434 4.91345 4.88269 4.85112 4.81874 4.78558 4.75166 4.71699 4.68162 4.64558 4.60894 4.57174 4.53407 4.49602 4.4577 4.41923 4.38075 4.34246 4.30454 4.26724 4.23083 4.19564 4.16204 4.13045 4.10137 4.07536 4.05303 4.03502 4.02199 4.01447 4.01285 4.01722 4.02738 4.04288 4.06312 4.08748 4.1153 4.14601 4.17908 4.21404 4.25049 4.28809 4.32653 4.36555 4.40494 4.44449 4.48404 4.52346 4.56262 4.60143 4.6398 4.67765 4.71493 4.75159 4.78759 4.82288 4.85746 4.89129 4.92437 4.95667 4.9882 5.01895 5.04892 5.0781 5.10652 5.13416 5.16105 5.18718 5.21257 5.23723 5.26117 5.2844 5.30693 5.32879 5.34998 5.37052 5.39042 5.4097 5.42837 5.44645 5.46395 5.48088 5.49727 5.51312 5.52844 5.54327 5.5576 5.57145 5.58484 5.59777 5.61027 5.62234 5.634 5.64525 5.65612 5.66662 5.67675 5.68652 5.69596 5.70506 5.71384 5.72231 5.73049 5.73837 5.74597 5.75329 5.76036 5.76717 5.77374 5.78007 5.78617 5.79205 5.79771 5.80317 5.80843 5.8135 5.81838 5.82308 5.82761 5.83197 5.83617 5.84022 5.84412 5.84787 5.85148 5.85496 5.85832 5.86154 5.86465 5.86764 5.87052 5.87329 5.87596
