ncols 378
nrows 32
xllcorner -103.699996948
yllcorner 25.000000009
cellsize 0.0833333333
NODATA_value -9999
7.99457 8.22697 8.15 7.82571 8.05616 7.73304 7.57232 7.64076 7.55815 7.49707 7.62914 8.6434 9.58764 8.80273 8.38132 7.9308 7.77065 8.33026 8.6046 8.46462 7.70491 7.34164 7.37542 7.00202 6.89098 6.88616 6.72407 6.68436 6.53294 6.51962 6.45497 6.42198 6.44765 6.38797 6.37175 6.36359 6.3611 6.35811 6.35143 6.35392 6.34098 6.33494 6.33659 6.33846 6.35238 6.32554 6.31879 6.31089 6.29721 6.29124 6.29478 6.31552 6.3059 6.31379 6.30775 6.30316 6.31058 6.31351 6.32105 6.3309 6.33283 6.31615 6.30519 6.29435 6.28848 6.2845 6.28008 6.27708 6.27516 6.27407 6.27327 6.27289 6.27267 6.27261 6.27264 6.27254 6.27246 6.2725 6.27247 6.27247 6.27247 6.27247 6.27247 6.27247 6.27247 6.27247 6.27247 6.27247 6.27247 6.27247 6.27247 6.27247 6.27247 6.27247 6.27247 6.27247 6.27247 6.27247 6.27247 6.27247 6.27247 6.27247 6.27247 6.27247 6.27247 6.27247 6.27247 6.27247 6.27247 6.27247 6.27247 6.27247 6.27247 6.27247 6.27247 6.27247 6.27247 6.27247 6.27247 6.27247 6.27247 6.27247 6.27247 6.27247 6.27247 6.27247 6.27247 6.27247 6.27247 6.27247 6.27247 6.27247 6.27247 6.27247 6.27247 6.27247 6.27247 6.27247 6.27247 6.27247 6.27247 6.27247 6.27247 6.27247 6.27247 6.27247 6.27247 6.27247 6.27247 6.27247 6.27247 6.27247 6.27247 6.27247 6.27247 6.27247 6.27247 6.27247 6.27247 6.27247 6.27247 6.27247 6.27247 6.27247 6.27247 6.27247 6.27247 6.27247 6.27247 6.27247 6.27247 6.27247 6.27247 6.27247 6.27247 6.27247 6.27247 6.27247 6.27247 6.27247 6.27247 6.27247 6.27247 6.27247 6.27247 6.27247 6.27247 6.27247 6.27247 6.27247 6.27247 6.27247 6.27247 6.27247 6.27247 6.27247 6.27247 6.27247 6.27247 6.27247 6.27247 6.27247 6.27247 6.27247 6.27247 6.27247 6.27247 6.27247 6.27247 6.27247 6.27247 6.27247 6.27247 6.27247 6.27247 6.27247 6.27247 6.27247 6.27247 6.27247 6.27247 6.27247 6.27247 6.27247 6.27247 6.27247 6.27247 6.27247 6.27247 6.27247 6.27247 6.27247 6.27247 6.27247 6.27247 6.27247 6.27247 6.27247 6.27247 6.27247 6.27247 6.27247 6.27247 6.27247 6.27247 6.27247 6.27247 6.27247 6.27247 6.27247 6.27247 6.27247 6.27247 6.27247 6.27247 6.27258 6.27254 6.27288 6.27338 6.27431 6.27433 6.27396 6.27389 6.27325 6.27381 6.27327 6.27403 6.27367 6.27315 6.27303 6.27304 6.2727 6.27293 6.27298 6.27298 6.2727 6.27252 6.27249 6.27254 6.27252 6.27247 6.27247 6.27247 6.27247 6.27247 6.27247 6.27247 6.27247 6.27247 6.27247 6.27247 6.27247 6.27247 6.27247 6.27247 6.27247 6.27247 6.27247 6.27247 6.27247 6.27247 6.27247 6.27247 6.27247 6.27247 6.27247 6.27247 6.27247 6.27247 6.27247 6.27247 6.27247 6.27247 6.27247 6.27247 6.27247 6.27247 6.27247 6.27247 6.27247 6.27247 6.27247 6.27247 6.27247 6.27247 6.27247 6.27247 6.27247 6.27247 6.27247 6.27247 6.27247 6.27247 6.27247 6.27247 6.27247 6.27247 6.27247 6.27247 6.27247 6.27247 6.27247 6.27247 6.27247 6.27247 6.27247 6.27247 6.27247 6.27247 6.27247 6.27247 6.27247 6.27247 6.27247 6.27247 6.27247 6.27247 6.27247 6.27247 6.27247 6.27247 6.27247 6.27247 6.27247 6.27247 6.27247 6.27247 6.27247 6.27247 6.27247 6.27247 6.27247 6.27247 6.27247 6.27247 6.27247 6.27247 6.27247
7.9152 8.09873 8.29729 7.94324 8.05349 8.24652 7.7414 7.84682 7.79811 7.57044 7.65976 7.99512 9.74438 9.57254 8.46824 8.15606 7.78014 7.96383 8.21624 8.11903 7.95941 7.77155 7.54524 7.01146 6.86534 6.95299 7.25814 6.63406 6.55983 6.49847 6.47519 6.44145 6.41691 6.39648 6.3938 6.3839 6.36856 6.37169 6.3667 6.36146 6.35798 6.3519 6.35051 6.34361 6.35581 6.35848 6.33143 6.32452 6.31657 6.31312 6.31428 6.31427 6.31668 6.3365 6.32316 6.32401 6.33438 6.366 6.3645 6.35426 6.34445 6.33112 6.31802 6.30856 6.30208 6.29845 6.29415 6.29171 6.28994 6.28929 6.28857 6.28806 6.28799 6.28792 6.28785 6.28787 6.28776 6.28774 6.28774 6.28774 6.28774 6.28774 6.28774 6.28774 6.28774 6.28774 6.28774 6.28774 6.28774 6.28774 6.28774 6.28774 6.28774 6.28774 6.28774 6.28774 6.28774 6.28774 6.28774 6.28774 6.28774 6.28774 6.28774 6.28774 6.28774 6.28774 6.28774 6.28774 6.28774 6.28774 6.28774 6.28774 6.28774 6.28774 6.28774 6.28774 6.28774 6.28774 6.28774 6.28774 6.28774 6.28774 6.28774 6.28774 6.28774 6.28774 6.28774 6.28774 6.28774 6.28774 6.28774 6.28774 6.28774 6.28774 6.28774 6.28774 6.28774 6.28774 6.28774 6.28774 6.28774 6.28774 6.28774 6.28774 6.28774 6.28774 6.28774 6.28774 6.28774 6.28774 6.28774 6.28774 6.28774 6.28774 6.28774 6.28774 6.28774 6.28774 6.28774 6.28774 6.28774 6.28774 6.28774 6.28774 6.28774 6.28774 6.28774 6.28774 6.28774 6.28774 6.28774 6.28774 6.28774 6.28774 6.28774 6.28774 6.28774 6.28774 6.28774 6.28774 6.28774 6.28774 6.28774 6.28774 6.28774 6.28774 6.28774 6.28774 6.28774 6.28774 6.28774 6.28774 6.28774 6.28774 6.28774 6.28774 6.28774 6.28774 6.28774 6.28774 6.28774 6.28774 6.28774 6.28774 6.28774 6.28774 6.28774 6.28774 6.28774 6.28774 6.28774 6.28774 6.28774 6.28774 6.28774 6.28774 6.28774 6.28774 6.28774 6.28774 6.28774 6.28774 6.28774 6.28774 6.28774 6.28774 6.28774 6.28774 6.28774 6.28774 6.28774 6.28774 6.28774 6.28774 6.28774 6.28774 6.28774 6.28774 6.28774 6.28774 6.28774 6.28774 6.28774 6.28774 6.28774 6.28774 6.28774 6.28774 6.28774 6.28774 6.28774 6.28774 6.28774 6.28774 6.28786 6.28796 6.28789 6.28849 6.28964 6.28964 6.28937 6.2893 6.28928 6.28871 6.28956 6.28875 6.28952 6.28936 6.28864 6.2885 6.28815 6.28818 6.28833 6.28844 6.2885 6.28834 6.28792 6.28795 6.28787 6.28785 6.28792 6.28774 6.28774 6.28774 6.28774 6.28774 6.28774 6.28774 6.28774 6.28774 6.28774 6.28774 6.28774 6.28774 6.28774 6.28774 6.28774 6.28774 6.28774 6.28774 6.28774 6.28774 6.28774 6.28774 6.28774 6.28774 6.28774 6.28774 6.28774 6.28774 6.28774 6.28774 6.28774 6.28774 6.28774 6.28774 6.28774 6.28774 6.28774 6.28774 6.28774 6.28774 6.28774 6.28774 6.28774 6.28774 6.28774 6.28774 6.28774 6.28774 6.28774 6.28774 6.28774 6.28774 6.28774 6.28774 6.28774 6.28774 6.28774 6.28774 6.28774 6.28774 6.28774 6.28774 6.28774 6.28774 6.28774 6.28774 6.28774 6.28774 6.28774 6.28774 6.28774 6.28774 6.28774 6.28774 6.28774 6.28774 6.28774 6.28774 6.28774 6.28774 6.28774 6.28774 6.28774 6.28774 6.28774 6.28774 6.28774 6.28774 6.28774 6.28774 6.28774 6.28774 6.28774 6.28774 6.28774 6.28774
7.91569 8.07419 8.34874 7.87257 7.9754 8.1001 7.78683 7.88495 7.75372 7.97715 7.64278 7.93746 9.06341 9.96491 8.61995 7.90446 7.75651 7.73675 7.95408 7.76293 7.92323 9.33947 7.96882 7.17609 6.88662 6.80989 6.73831 6.856 6.5561 6.49051 6.47207 6.44797 6.42517 6.41025 6.40364 6.39654 6.38958 6.38418 6.40673 6.37902 6.37674 6.37274 6.3663 6.36392 6.36068 6.3786 6.3746 6.35696 6.33862 6.3328 6.32835 6.33106 6.34706 6.34335 6.33338 6.33708 6.35 6.38781 6.37845 6.3728 6.35693 6.34021 6.33138 6.3265 6.31969 6.31526 6.31233 6.30922 6.30778 6.30677 6.30614 6.30583 6.30587 6.30574 6.30559 6.30549 6.30541 6.30546 6.30541 6.30541 6.30541 6.30541 6.30541 6.30541 6.30541 6.30541 6.30541 6.30541 6.30541 6.30541 6.30541 6.30541 6.30541 6.30541 6.30541 6.30541 6.30541 6.30541 6.30541 6.30541 6.30541 6.30541 6.30541 6.30541 6.30541 6.30541 6.30541 6.30541 6.30541 6.30541 6.30541 6.30541 6.30541 6.30541 6.30541 6.30541 6.30541 6.30541 6.30541 6.30541 6.30541 6.30541 6.30541 6.30541 6.30541 6.30541 6.30541 6.30541 6.30541 6.30541 6.30541 6.30541 6.30541 6.30541 6.30541 6.30541 6.30541 6.30541 6.30541 6.30541 6.30541 6.30541 6.30541 6.30541 6.30541 6.30541 6.30541 6.30541 6.30541 6.30541 6.30541 6.30541 6.30541 6.30541 6.30541 6.30541 6.30541 6.30541 6.30541 6.30541 6.30541 6.30541 6.30541 6.30541 6.30541 6.30541 6.30541 6.30541 6.30541 6.30541 6.30541 6.30541 6.30541 6.30541 6.30541 6.30541 6.30541 6.30541 6.30541 6.30541 6.30541 6.30541 6.30541 6.30541 6.30541 6.30541 6.30541 6.30541 6.30541 6.30541 6.30541 6.30541 6.30541 6.30541 6.30541 6.30541 6.30541 6.30541 6.30541 6.30541 6.30541 6.30541 6.30541 6.30541 6.30541 6.30541 6.30541 6.30541 6.30541 6.30541 6.30541 6.30541 6.30541 6.30541 6.30541 6.30541 6.30541 6.30541 6.30541 6.30541 6.30541 6.30541 6.30541 6.30541 6.30541 6.30541 6.30541 6.30541 6.30541 6.30541 6.30541 6.30541 6.30541 6.30541 6.30541 6.30541 6.30541 6.30541 6.30541 6.30541 6.30541 6.30541 6.30541 6.30541 6.30541 6.30541 6.30541 6.30541 6.30541 6.30541 6.30541 6.30541 6.30541 6.30556 6.30582 6.30574 6.30596 6.3062 6.30646 6.3067 6.30678 6.30676 6.3067 6.30626 6.3062 6.30674 6.30764 6.30729 6.30697 6.30602 6.3062 6.30597 6.30614 6.30626 6.30626 6.30626 6.30608 6.3057 6.30566 6.30566 6.30559 6.30541 6.30541 6.30541 6.30541 6.30541 6.30541 6.30541 6.30541 6.30541 6.30541 6.30541 6.30541 6.30541 6.30541 6.30541 6.30541 6.30541 6.30541 6.30541 6.30541 6.30541 6.30541 6.30541 6.30541 6.30541 6.30541 6.30541 6.30541 6.30541 6.30541 6.30541 6.30541 6.30541 6.30541 6.30541 6.30541 6.30541 6.30541 6.30541 6.30541 6.30541 6.30541 6.30541 6.30541 6.30541 6.30541 6.30541 6.30541 6.30541 6.30541 6.30541 6.30541 6.30541 6.30541 6.30541 6.30541 6.30541 6.30541 6.30541 6.30541 6.30541 6.30541 6.30541 6.30541 6.30541 6.30541 6.30541 6.30541 6.30541 6.30541 6.30541 6.30541 6.30541 6.30541 6.30541 6.30541 6.30541 6.30541 6.30541 6.30541 6.30541 6.30541 6.30541 6.30541 6.30541 6.30541 6.30541 6.30541 6.30541 6.30541 6.30541 6.30541 6.30541 6.30541 6.30541 6.30541 6.30541
8.19452 8.11289 8.00305 7.81951 7.70258 7.6684 7.6316 7.68434 7.68354 7.6688 7.5991 7.90267 8.7088 9.15817 9.26338 8.53093 7.70418 7.56154 7.5546 7.5734 7.77705 8.26951 7.87872 7.89951 6.88808 6.75814 6.67161 6.70098 6.75133 6.51014 6.4715 6.45818 6.44347 6.43964 6.43255 6.42389 6.41759 6.41544 6.39467 6.39075 6.38848 6.38688 6.38522 6.37842 6.37411 6.38029 6.39703 6.36862 6.35571 6.35904 6.3453 6.34486 6.35493 6.35041 6.34764 6.35394 6.37224 6.40647 6.40839 6.38679 6.36755 6.35941 6.34899 6.34028 6.33535 6.33165 6.32816 6.32579 6.32405 6.32308 6.32253 6.32195 6.32157 6.32171 6.32178 6.32157 6.32157 6.32157 6.32157 6.32157 6.32157 6.32157 6.32157 6.32157 6.32157 6.32157 6.32157 6.32157 6.32157 6.32157 6.32157 6.32157 6.32157 6.32157 6.32157 6.32157 6.32157 6.32157 6.32157 6.32157 6.32157 6.32157 6.32157 6.32157 6.32157 6.32157 6.32157 6.32157 6.32157 6.32157 6.32157 6.32157 6.32157 6.32157 6.32157 6.32157 6.32157 6.32157 6.32157 6.32157 6.32157 6.32157 6.32157 6.32157 6.32157 6.32157 6.32157 6.32157 6.32157 6.32157 6.32157 6.32157 6.32157 6.32157 6.32157 6.32157 6.32157 6.32157 6.32157 6.32157 6.32157 6.32157 6.32157 6.32157 6.32157 6.32157 6.32157 6.32157 6.32157 6.32157 6.32157 6.32157 6.32157 6.32157 6.32157 6.32157 6.32157 6.32157 6.32157 6.32157 6.32157 6.32157 6.32157 6.32157 6.32157 6.32157 6.32157 6.32157 6.32157 6.32157 6.32157 6.32157 6.32157 6.32157 6.32157 6.32157 6.32157 6.32157 6.32157 6.32157 6.32157 6.32157 6.32157 6.32157 6.32157 6.32157 6.32157 6.32157 6.32157 6.32157 6.32157 6.32157 6.32157 6.32157 6.32157 6.32157 6.32157 6.32157 6.32157 6.32157 6.32157 6.32157 6.32157 6.32157 6.32157 6.32157 6.32157 6.32157 6.32157 6.32157 6.32157 6.32157 6.32157 6.32157 6.32157 6.32157 6.32157 6.32157 6.32157 6.32157 6.32157 6.32157 6.32157 6.32157 6.32157 6.32157 6.32157 6.32157 6.32157 6.32157 6.32157 6.32157 6.32157 6.32157 6.32157 6.32157 6.32157 6.32157 6.32157 6.32157 6.32157 6.32157 6.32157 6.32157 6.32157 6.32157 6.32157 6.32157 6.32157 6.32157 6.32157 6.32157 6.32157 6.32157 6.3219 6.32205 6.32215 6.32283 6.32261 6.32214 6.32306 6.32299 6.3226 6.32233 6.32314 6.32325 6.32316 6.32394 6.323 6.32195 6.32226 6.32226 6.3221 6.32216 6.3221 6.32246 6.32253 6.322 6.32195 6.3219 6.32191 6.3216 6.32157 6.32157 6.32157 6.32157 6.32157 6.32157 6.32157 6.32157 6.32157 6.32157 6.32157 6.32157 6.32157 6.32157 6.32157 6.32157 6.32157 6.32157 6.32157 6.32157 6.32157 6.32157 6.32157 6.32157 6.32157 6.32157 6.32157 6.32157 6.32157 6.32157 6.32157 6.32157 6.32157 6.32157 6.32157 6.32157 6.32157 6.32157 6.32157 6.32157 6.32157 6.32157 6.32157 6.32157 6.32157 6.32157 6.32157 6.32157 6.32157 6.32157 6.32157 6.32157 6.32157 6.32157 6.32157 6.32157 6.32157 6.32157 6.32157 6.32157 6.32157 6.32157 6.32157 6.32157 6.32157 6.32157 6.32157 6.32157 6.32157 6.32157 6.32157 6.32157 6.32157 6.32157 6.32157 6.32157 6.32157 6.32157 6.32157 6.32157 6.32157 6.32157 6.32157 6.32157 6.32157 6.32157 6.32157 6.32157 6.32157 6.32157 6.32157 6.32157 6.32157 6.32157 6.32157 6.32157
8.87709 8.29699 8.37317 7.81744 8.42058 7.58187 7.78554 7.60842 7.69442 7.61945 7.60553 7.74871 8.54918 8.72499 8.65658 8.27287 7.59179 7.46435 7.40815 7.55698 8.14022 8.34067 8.81975 7.1831 6.91293 6.71694 6.64724 6.61232 6.69645 6.62059 6.49444 6.52394 6.50339 6.50017 6.4787 6.4565 6.4584 6.45944 6.41839 6.40463 6.39454 6.39982 6.39627 6.39669 6.38464 6.3849 6.3861 6.38371 6.37115 6.36344 6.36198 6.35953 6.36359 6.3588 6.36583 6.37325 6.38374 6.42062 6.42436 6.40427 6.38457 6.36966 6.36524 6.35722 6.35275 6.34721 6.34311 6.34195 6.34049 6.33989 6.33929 6.33863 6.33834 6.33816 6.33816 6.33816 6.33816 6.33816 6.33816 6.33816 6.33816 6.33816 6.33816 6.33816 6.33816 6.33816 6.33816 6.33816 6.33816 6.33816 6.33816 6.33816 6.33816 6.33816 6.33816 6.33816 6.33816 6.33816 6.33816 6.33816 6.33816 6.33816 6.33816 6.33816 6.33816 6.33816 6.33816 6.33816 6.33816 6.33816 6.33816 6.33816 6.33816 6.33816 6.33816 6.33816 6.33816 6.33816 6.33816 6.33816 6.33816 6.33816 6.33816 6.33816 6.33816 6.33816 6.33816 6.33816 6.33816 6.33816 6.33816 6.33816 6.33816 6.33816 6.33816 6.33816 6.33816 6.33816 6.33816 6.33816 6.33816 6.33816 6.33816 6.33816 6.33816 6.33816 6.33816 6.33816 6.33816 6.33816 6.33816 6.33816 6.33816 6.33816 6.33816 6.33816 6.33816 6.33816 6.33816 6.33816 6.33816 6.33816 6.33816 6.33816 6.33816 6.33816 6.33816 6.33816 6.33816 6.33816 6.33816 6.33816 6.33816 6.33816 6.33816 6.33816 6.33816 6.33816 6.33816 6.33816 6.33816 6.33816 6.33816 6.33816 6.33816 6.33816 6.33816 6.33816 6.33816 6.33816 6.33816 6.33816 6.33816 6.33816 6.33816 6.33816 6.33816 6.33816 6.33816 6.33816 6.33816 6.33816 6.33816 6.33816 6.33816 6.33816 6.33816 6.33816 6.33816 6.33816 6.33816 6.33816 6.33816 6.33816 6.33816 6.33816 6.33816 6.33816 6.33816 6.33816 6.33816 6.33816 6.33816 6.33816 6.33816 6.33816 6.33816 6.33816 6.33816 6.33816 6.33816 6.33816 6.33816 6.33816 6.33816 6.33816 6.33816 6.33816 6.33816 6.33816 6.33816 6.33816 6.33816 6.33816 6.33816 6.33816 6.33816 6.33816 6.33816 6.33816 6.33816 6.33816 6.33816 6.33816 6.33816 6.33863 6.33874 6.339 6.33868 6.33929 6.33945 6.33921 6.33945 6.3397 6.33988 6.33988 6.34007 6.34038 6.34011 6.3387 6.33874 6.33886 6.3388 6.33874 6.33874 6.33874 6.33914 6.33923 6.33863 6.33868 6.33863 6.33847 6.33816 6.33816 6.33816 6.33816 6.33816 6.33816 6.33816 6.33816 6.33816 6.33816 6.33816 6.33816 6.33816 6.33816 6.33816 6.33816 6.33816 6.33816 6.33816 6.33816 6.33816 6.33816 6.33816 6.33816 6.33816 6.33816 6.33816 6.33816 6.33816 6.33816 6.33816 6.33816 6.33816 6.33816 6.33816 6.33816 6.33816 6.33816 6.33816 6.33816 6.33816 6.33816 6.33816 6.33816 6.33816 6.33816 6.33816 6.33816 6.33816 6.33816 6.33816 6.33816 6.33816 6.33816 6.33816 6.33816 6.33816 6.33816 6.33816 6.33816 6.33816 6.33816 6.33816 6.33816 6.33816 6.33816 6.33816 6.33816 6.33816 6.33816 6.33816 6.33816 6.33816 6.33816 6.33816 6.33816 6.33816 6.33816 6.33816 6.33816 6.33816 6.33816 6.33816 6.33816 6.33816 6.33816 6.33816 6.33816 6.33816 6.33816 6.33816 6.33816 6.33816 6.33816 6.33816 6.33816
8.63772 8.84602 7.89848 7.70948 7.9764 7.5972 7.61198 7.57098 7.85714 7.81003 7.62285 8.3605 8.09888 9.07251 8.86516 8.27923 7.65199 7.42205 7.32498 7.5384 9.74879 8.361 8.0169 7.31944 6.82644 6.71532 6.6386 6.59919 6.5764 6.55106 6.54202 6.55755 6.76154 6.64299 6.54699 6.50144 6.48533 6.45538 6.44043 6.42935 6.42609 6.42097 6.41189 6.40537 6.40688 6.4013 6.39572 6.39524 6.39852 6.38064 6.38989 6.37772 6.37893 6.38761 6.39591 6.38795 6.40055 6.40827 6.43704 6.41632 6.40081 6.38941 6.3856 6.37702 6.37258 6.36666 6.36215 6.36011 6.35975 6.35902 6.35848 6.35797 6.3579 6.35761 6.35742 6.35733 6.35733 6.35733 6.35733 6.35733 6.35733 6.35733 6.35733 6.35733 6.35733 6.35733 6.35733 6.35733 6.35733 6.35733 6.35733 6.35733 6.35733 6.35733 6.35733 6.35733 6.35733 6.35733 6.35733 6.35733 6.35733 6.35733 6.35733 6.35733 6.35733 6.35733 6.35733 6.35733 6.35733 6.35733 6.35733 6.35733 6.35733 6.35733 6.35733 6.35733 6.35733 6.35733 6.35733 6.35733 6.35733 6.35733 6.35733 6.35733 6.35733 6.35733 6.35733 6.35733 6.35733 6.35733 6.35733 6.35733 6.35733 6.35733 6.35733 6.35733 6.35733 6.35733 6.35733 6.35733 6.35733 6.35733 6.35733 6.35733 6.35733 6.35733 6.35733 6.35733 6.35733 6.35733 6.35733 6.35733 6.35733 6.35733 6.35733 6.35733 6.35733 6.35733 6.35733 6.35733 6.35733 6.35733 6.35733 6.35733 6.35733 6.35733 6.35733 6.35733 6.35733 6.35733 6.35733 6.35733 6.35733 6.35733 6.35733 6.35733 6.35733 6.35733 6.35733 6.35733 6.35733 6.35733 6.35733 6.35733 6.35733 6.35733 6.35733 6.35733 6.35733 6.35733 6.35733 6.35733 6.35733 6.35733 6.35733 6.35733 6.35733 6.35733 6.35733 6.35733 6.35733 6.35733 6.35733 6.35733 6.35733 6.35733 6.35733 6.35733 6.35733 6.35733 6.35733 6.35733 6.35733 6.35733 6.35733 6.35733 6.35733 6.35733 6.35733 6.35733 6.35733 6.35733 6.35733 6.35733 6.35733 6.35733 6.35733 6.35733 6.35733 6.35733 6.35733 6.35733 6.35733 6.35733 6.35733 6.35733 6.35733 6.35733 6.35733 6.35733 6.35733 6.35733 6.35733 6.35733 6.35733 6.35733 6.35733 6.35733 6.35733 6.35733 6.35733 6.35733 6.35733 6.35733 6.35733 6.35761 6.35778 6.35783 6.3579 6.35804 6.35825 6.35824 6.3579 6.35874 6.35892 6.35922 6.35932 6.35932 6.36083 6.35967 6.35796 6.3579 6.35803 6.35791 6.3579 6.3573 6.35797 6.35833 6.35797 6.3579 6.35797 6.35771 6.35733 6.35733 6.35733 6.35733 6.35733 6.35733 6.35733 6.35733 6.35733 6.35733 6.35733 6.35733 6.35733 6.35733 6.35733 6.35733 6.35733 6.35733 6.35733 6.35733 6.35733 6.35733 6.35733 6.35733 6.35733 6.35733 6.35733 6.35733 6.35733 6.35733 6.35733 6.35733 6.35733 6.35733 6.35733 6.35733 6.35733 6.35733 6.35733 6.35733 6.35733 6.35733 6.35733 6.35733 6.35733 6.35733 6.35733 6.35733 6.35733 6.35733 6.35733 6.35733 6.35733 6.35733 6.35733 6.35733 6.35733 6.35733 6.35733 6.35733 6.35733 6.35733 6.35733 6.35733 6.35733 6.35733 6.35733 6.35733 6.35733 6.35733 6.35733 6.35733 6.35733 6.35733 6.35733 6.35733 6.35733 6.35733 6.35733 6.35733 6.35733 6.35733 6.35733 6.35733 6.35733 6.35733 6.35733 6.35733 6.35733 6.35733 6.35733 6.35733 6.35733 6.35733 6.35733 6.35733
8.10961 8.05142 7.73594 7.56523 7.58187 7.76129 7.68112 7.67634 7.58347 7.72477 7.77836 8.01904 9.60392 10.3149 10.2392 8.62265 7.8202 7.43179 7.26778 7.28001 8.90129 9.55392 7.76935 7.45 6.779 6.6883 6.65363 6.61611 6.59786 6.59124 6.57503 6.68109 6.69251 7.36745 6.62672 6.56184 6.51159 6.48182 6.47007 6.46784 6.45767 6.45659 6.43277 6.43097 6.41892 6.41536 6.42668 6.40534 6.40243 6.39854 6.39476 6.3978 6.40077 6.40795 6.41028 6.40105 6.40585 6.42967 6.448 6.43583 6.4177 6.40685 6.40076 6.39489 6.39462 6.38479 6.38006 6.37801 6.37741 6.37654 6.37625 6.3759 6.37565 6.37517 6.37517 6.37505 6.37484 6.37484 6.37484 6.37484 6.37484 6.37484 6.37484 6.37484 6.37484 6.37484 6.37484 6.37484 6.37484 6.37484 6.37484 6.37484 6.37484 6.37484 6.37484 6.37484 6.37484 6.37484 6.37484 6.37484 6.37484 6.37484 6.37484 6.37484 6.37484 6.37484 6.37484 6.37484 6.37484 6.37484 6.37484 6.37484 6.37484 6.37484 6.37484 6.37484 6.37484 6.37484 6.37484 6.37484 6.37484 6.37484 6.37484 6.37484 6.37484 6.37484 6.37484 6.37484 6.37484 6.37484 6.37484 6.37484 6.37484 6.37484 6.37484 6.37484 6.37484 6.37484 6.37484 6.37484 6.37484 6.37484 6.37484 6.37484 6.37484 6.37484 6.37484 6.37484 6.37484 6.37484 6.37484 6.37484 6.37484 6.37484 6.37484 6.37484 6.37484 6.37484 6.37484 6.37484 6.37484 6.37484 6.37484 6.37484 6.37484 6.37484 6.37484 6.37484 6.37484 6.37484 6.37484 6.37484 6.37484 6.37484 6.37484 6.37484 6.37484 6.37484 6.37484 6.37484 6.37484 6.37484 6.37484 6.37484 6.37484 6.37484 6.37484 6.37484 6.37484 6.37484 6.37484 6.37484 6.37484 6.37484 6.37484 6.37484 6.37484 6.37484 6.37484 6.37484 6.37484 6.37484 6.37484 6.37484 6.37484 6.37484 6.37484 6.37484 6.37484 6.37484 6.37484 6.37484 6.37484 6.37484 6.37484 6.37484 6.37484 6.37484 6.37484 6.37484 6.37484 6.37484 6.37484 6.37484 6.37484 6.37484 6.37484 6.37484 6.37484 6.37484 6.37484 6.37484 6.37484 6.37484 6.37484 6.37484 6.37484 6.37484 6.37484 6.37484 6.37484 6.37484 6.37484 6.37484 6.37484 6.37484 6.37484 6.37484 6.37484 6.37484 6.37484 6.37484 6.37484 6.37484 6.37484 6.37484 6.37516 6.37543 6.37557 6.37557 6.37557 6.37529 6.37581 6.37597 6.37615 6.37653 6.37672 6.37673 6.37864 6.37773 6.3755 6.37557 6.37565 6.37543 6.37492 6.37471 6.37475 6.37557 6.37564 6.37543 6.3755 6.3753 6.37536 6.37484 6.37484 6.37484 6.37484 6.37484 6.37484 6.37484 6.37484 6.37484 6.37484 6.37484 6.37484 6.37484 6.37484 6.37484 6.37484 6.37484 6.37484 6.37484 6.37484 6.37484 6.37484 6.37484 6.37484 6.37484 6.37484 6.37484 6.37484 6.37484 6.37484 6.37484 6.37484 6.37484 6.37484 6.37484 6.37484 6.37484 6.37484 6.37484 6.37484 6.37484 6.37484 6.37484 6.37484 6.37484 6.37484 6.37484 6.37484 6.37484 6.37484 6.37484 6.37484 6.37484 6.37484 6.37484 6.37484 6.37484 6.37484 6.37484 6.37484 6.37484 6.37484 6.37484 6.37484 6.37484 6.37484 6.37484 6.37484 6.37484 6.37484 6.37484 6.37484 6.37484 6.37484 6.37484 6.37484 6.37484 6.37484 6.37484 6.37484 6.37484 6.37484 6.37484 6.37484 6.37484 6.37484 6.37484 6.37484 6.37484 6.37484 6.37484 6.37484 6.37484 6.37484 6.37484
7.75393 7.69881 7.62415 7.56611 7.54965 8.84358 8.16018 8.11033 7.68237 8.06492 7.81484 7.98226 7.91605 8.20875 8.4291 11.762 10.9727 8.59505 7.65756 7.15515 8.44888 8.41741 7.47787 6.88735 6.92783 6.71564 6.69789 6.7183 6.68631 6.65513 6.64503 6.72576 7.492 6.83058 7.23198 6.65676 7.08417 6.52589 6.51077 6.55944 6.5039 6.48013 6.45979 6.44242 6.43392 6.43282 6.44365 6.43167 6.41954 6.4199 6.41675 6.41051 6.42362 6.41819 6.4257 6.41641 6.42571 6.43502 6.44251 6.4508 6.43255 6.4237 6.41795 6.41104 6.40543 6.40307 6.39941 6.3971 6.39524 6.39446 6.39379 6.3938 6.39354 6.3933 6.3931 6.39279 6.39279 6.39279 6.39279 6.39279 6.39279 6.39279 6.39279 6.39279 6.39279 6.39279 6.39279 6.39279 6.39279 6.39279 6.39279 6.39279 6.39279 6.39279 6.39279 6.39279 6.39279 6.39279 6.39279 6.39279 6.39279 6.39279 6.39279 6.39279 6.39279 6.39279 6.39279 6.39279 6.39279 6.39279 6.39279 6.39279 6.39279 6.39279 6.39279 6.39279 6.39279 6.39279 6.39279 6.39279 6.39279 6.39279 6.39279 6.39279 6.39279 6.39279 6.39279 6.39279 6.39279 6.39279 6.39279 6.39279 6.39279 6.39279 6.39279 6.39279 6.39279 6.39279 6.39279 6.39279 6.39279 6.39279 6.39279 6.39279 6.39279 6.39279 6.39279 6.39279 6.39279 6.39279 6.39279 6.39279 6.39279 6.39279 6.39279 6.39279 6.39279 6.39279 6.39279 6.39279 6.39279 6.39279 6.39279 6.39279 6.39279 6.39279 6.39279 6.39279 6.39279 6.39279 6.39279 6.39279 6.39279 6.39279 6.39279 6.39279 6.39279 6.39279 6.39279 6.39279 6.39279 6.39279 6.39279 6.39279 6.39279 6.39279 6.39279 6.39279 6.39279 6.39279 6.39279 6.39279 6.39279 6.39279 6.39279 6.39279 6.39279 6.39279 6.39279 6.39279 6.39279 6.39279 6.39279 6.39279 6.39279 6.39279 6.39279 6.39279 6.39279 6.39279 6.39279 6.39279 6.39279 6.39279 6.39279 6.39279 6.39279 6.39279 6.39279 6.39279 6.39279 6.39279 6.39279 6.39279 6.39279 6.39279 6.39279 6.39279 6.39279 6.39279 6.39279 6.39279 6.39279 6.39279 6.39279 6.39279 6.39279 6.39279 6.39279 6.39279 6.39279 6.39279 6.39279 6.39279 6.39279 6.39279 6.39279 6.39279 6.39279 6.39279 6.39279 6.39279 6.39279 6.39279 6.39279 6.39279 6.39317 6.3931 6.39324 6.39362 6.39346 6.3933 6.39363 6.3937 6.39378 6.39415 6.39477 6.39499 6.3957 6.39416 6.39362 6.39362 6.39339 6.39281 6.39269 6.39264 6.39263 6.39322 6.39361 6.39378 6.39346 6.39338 6.39323 6.39354 6.39279 6.39279 6.39279 6.39279 6.39279 6.39279 6.39279 6.39279 6.39279 6.39279 6.39279 6.39279 6.39279 6.39279 6.39279 6.39279 6.39279 6.39279 6.39279 6.39279 6.39279 6.39279 6.39279 6.39279 6.39279 6.39279 6.39279 6.39279 6.39279 6.39279 6.39279 6.39279 6.39279 6.39279 6.39279 6.39279 6.39279 6.39279 6.39279 6.39279 6.39279 6.39279 6.39279 6.39279 6.39279 6.39279 6.39279 6.39279 6.39279 6.39279 6.39279 6.39279 6.39279 6.39279 6.39279 6.39279 6.39279 6.39279 6.39279 6.39279 6.39279 6.39279 6.39279 6.39279 6.39279 6.39279 6.39279 6.39279 6.39279 6.39279 6.39279 6.39279 6.39279 6.39279 6.39279 6.39279 6.39279 6.39279 6.39279 6.39279 6.39279 6.39279 6.39279 6.39279 6.39279 6.39279 6.39279 6.39279 6.39279 6.39279 6.39279 6.39279 6.39279 6.39279
7.80161 7.74195 7.64224 7.58537 7.58517 8.27922 8.43056 7.61755 7.60394 8.03633 7.96387 7.92904 7.78463 7.8301 7.95818 7.90623 7.95832 7.79045 7.32014 7.07244 7.01735 6.97404 6.95554 7.94127 6.88392 7.17516 6.79686 6.78348 6.75726 6.75766 6.72022 6.70965 6.81576 6.97819 7.75091 6.93452 7.18401 6.5856 6.54944 6.74522 6.71609 6.53539 6.50678 6.46993 6.46109 6.4516 6.45167 6.45685 6.44381 6.44128 6.43813 6.44223 6.43039 6.44025 6.44024 6.43319 6.4399 6.44704 6.46144 6.48006 6.459 6.44833 6.43741 6.43123 6.42538 6.42628 6.42086 6.4184 6.41622 6.41495 6.41475 6.41427 6.41427 6.41395 6.41351 6.41351 6.41351 6.41351 6.41351 6.41351 6.41351 6.41351 6.41351 6.41351 6.41351 6.41351 6.41351 6.41351 6.41351 6.41351 6.41351 6.41351 6.41351 6.41351 6.41351 6.41351 6.41351 6.41351 6.41351 6.41351 6.41351 6.41351 6.41351 6.41351 6.41351 6.41351 6.41351 6.41351 6.41351 6.41351 6.41351 6.41351 6.41351 6.41351 6.41351 6.41351 6.41351 6.41351 6.41351 6.41351 6.41351 6.41351 6.41351 6.41351 6.41351 6.41351 6.41351 6.41351 6.41351 6.41351 6.41351 6.41351 6.41351 6.41351 6.41351 6.41351 6.41351 6.41351 6.41351 6.41351 6.41351 6.41351 6.41351 6.41351 6.41351 6.41351 6.41351 6.41351 6.41351 6.41351 6.41351 6.41351 6.41351 6.41351 6.41351 6.41351 6.41351 6.41351 6.41351 6.41351 6.41351 6.41351 6.41351 6.41351 6.41351 6.41351 6.41351 6.41351 6.41351 6.41351 6.41351 6.41351 6.41351 6.41351 6.41351 6.41351 6.41351 6.41351 6.41351 6.41351 6.41351 6.41351 6.41351 6.41351 6.41351 6.41351 6.41351 6.41351 6.41351 6.41351 6.41351 6.41351 6.41351 6.41351 6.41351 6.41351 6.41351 6.41351 6.41351 6.41351 6.41351 6.41351 6.41351 6.41351 6.41351 6.41351 6.41351 6.41351 6.41351 6.41351 6.41351 6.41351 6.41351 6.41351 6.41351 6.41351 6.41351 6.41351 6.41351 6.41351 6.41351 6.41351 6.41351 6.41351 6.41351 6.41351 6.41351 6.41351 6.41351 6.41351 6.41351 6.41351 6.41351 6.41351 6.41351 6.41351 6.41351 6.41351 6.41351 6.41351 6.41351 6.41351 6.41351 6.41351 6.41351 6.41351 6.41351 6.41351 6.41351 6.41351 6.41351 6.41351 6.41351 6.41351 6.41351 6.41351 6.41345 6.41387 6.41346 6.41373 6.41351 6.41356 6.41401 6.41454 6.41465 6.41515 6.41559 6.41484 6.41504 6.41475 6.41428 6.41422 6.41345 6.41339 6.41333 6.41327 6.41327 6.41333 6.41445 6.41427 6.41428 6.41419 6.41435 6.41352 6.41351 6.41351 6.41351 6.41351 6.41351 6.41351 6.41351 6.41351 6.41351 6.41351 6.41351 6.41351 6.41351 6.41351 6.41351 6.41351 6.41351 6.41351 6.41351 6.41351 6.41351 6.41351 6.41351 6.41351 6.41351 6.41351 6.41351 6.41351 6.41351 6.41351 6.41351 6.41351 6.41351 6.41351 6.41351 6.41351 6.41351 6.41351 6.41351 6.41351 6.41351 6.41351 6.41351 6.41351 6.41351 6.41351 6.41351 6.41351 6.41351 6.41351 6.41351 6.41351 6.41351 6.41351 6.41351 6.41351 6.41351 6.41351 6.41351 6.41351 6.41351 6.41351 6.41351 6.41351 6.41351 6.41351 6.41351 6.41351 6.41351 6.41351 6.41351 6.41351 6.41351 6.41351 6.41351 6.41351 6.41351 6.41351 6.41351 6.41351 6.41351 6.41351 6.41351 6.41351 6.41351 6.41351 6.41351 6.41351 6.41351 6.41351 6.41351 6.41351 6.41351 6.41351
7.81024 7.78337 7.68074 7.63574 7.65189 7.91568 8.95745 7.84297 7.63072 7.7868 7.90713 8.10267 7.79449 7.80734 8.53601 8.30623 7.73734 7.22011 7.11199 7.31279 7.02713 6.99537 7.014 7.21225 7.51693 7.11944 6.92308 6.91357 6.99681 7.48932 6.94047 6.83767 6.83956 6.91314 6.92787 7.62434 6.77188 6.62927 6.59748 6.64231 8.42138 6.61394 6.72661 6.51103 6.49771 6.47232 6.46514 6.46178 6.46101 6.45681 6.46372 6.46274 6.45976 6.45177 6.44927 6.46582 6.46472 6.46883 6.48084 6.48569 6.4835 6.46646 6.45685 6.44806 6.44345 6.44495 6.44049 6.43651 6.43458 6.43387 6.43316 6.43307 6.43317 6.43334 6.43242 6.43242 6.43242 6.43242 6.43242 6.43242 6.43242 6.43242 6.43242 6.43242 6.43242 6.43242 6.43242 6.43242 6.43242 6.43242 6.43242 6.43242 6.43242 6.43242 6.43242 6.43242 6.43242 6.43242 6.43242 6.43242 6.43242 6.43242 6.43242 6.43242 6.43242 6.43242 6.43242 6.43242 6.43242 6.43242 6.43242 6.43242 6.43242 6.43242 6.43242 6.43242 6.43242 6.43242 6.43242 6.43242 6.43242 6.43242 6.43242 6.43242 6.43242 6.43242 6.43242 6.43242 6.43242 6.43242 6.43242 6.43242 6.43242 6.43242 6.43242 6.43242 6.43242 6.43242 6.43242 6.43242 6.43242 6.43242 6.43242 6.43242 6.43242 6.43242 6.43242 6.43242 6.43242 6.43242 6.43242 6.43242 6.43242 6.43242 6.43242 6.43242 6.43242 6.43242 6.43242 6.43242 6.43242 6.43242 6.43242 6.43242 6.43242 6.43242 6.43242 6.43242 6.43242 6.43242 6.43242 6.43242 6.43242 6.43242 6.43242 6.43242 6.43242 6.43242 6.43242 6.43242 6.43242 6.43242 6.43242 6.43242 6.43242 6.43242 6.43242 6.43242 6.43242 6.43242 6.43242 6.43242 6.43242 6.43242 6.43242 6.43242 6.43242 6.43242 6.43242 6.43242 6.43242 6.43242 6.43242 6.43242 6.43242 6.43242 6.43242 6.43242 6.43242 6.43242 6.43242 6.43242 6.43242 6.43242 6.43242 6.43242 6.43242 6.43242 6.43242 6.43242 6.43242 6.43242 6.43242 6.43242 6.43242 6.43242 6.43242 6.43242 6.43242 6.43242 6.43242 6.43242 6.43242 6.43242 6.43242 6.43242 6.43242 6.43242 6.43242 6.43242 6.43242 6.43242 6.43242 6.43242 6.43242 6.43242 6.43242 6.43242 6.43242 6.43242 6.43242 6.43242 6.43242 6.43242 6.43242 6.43242 6.43242 6.43272 6.43265 6.43242 6.43242 6.43306 6.43325 6.43345 6.43365 6.43387 6.4342 6.4342 6.43376 6.43376 6.43326 6.43317 6.43242 6.43241 6.43221 6.43214 6.43214 6.4322 6.43298 6.43355 6.43335 6.43335 6.43326 6.43316 6.43242 6.43242 6.43242 6.43242 6.43242 6.43242 6.43242 6.43242 6.43242 6.43242 6.43242 6.43242 6.43242 6.43242 6.43242 6.43242 6.43242 6.43242 6.43242 6.43242 6.43242 6.43242 6.43242 6.43242 6.43242 6.43242 6.43242 6.43242 6.43227 6.43281 6.43227 6.43242 6.43242 6.43242 6.43242 6.43242 6.43242 6.43242 6.43242 6.43242 6.43242 6.43242 6.43242 6.43242 6.43242 6.43242 6.43242 6.43242 6.43242 6.43242 6.43242 6.43242 6.43242 6.43242 6.43242 6.43242 6.43242 6.43242 6.43242 6.43242 6.43242 6.43242 6.43242 6.43242 6.43242 6.43242 6.43242 6.43242 6.43242 6.43242 6.43242 6.43242 6.43242 6.43242 6.43242 6.43242 6.43242 6.43242 6.43242 6.43242 6.43242 6.43242 6.43242 6.43242 6.43242 6.43242 6.43242 6.43242 6.43242 6.43242 6.43242 6.43242 6.43242 6.43242
7.80003 7.76405 7.76816 7.67785 7.73563 8.17708 8.07574 8.09803 8.01953 7.87307 8.03161 8.49714 8.45842 8.68674 9.69117 9.71569 8.62363 8.23614 7.42592 7.5665 7.48285 7.03761 7.13762 8.91356 7.50384 7.37616 7.29575 7.46483 7.3032 8.02843 9.19065 7.13882 6.94794 7.07081 7.10559 6.9126 6.92428 6.97641 6.64846 6.6687 6.91802 6.79665 6.59714 6.5727 6.57921 6.50851 6.49888 6.48988 6.48438 6.47715 6.47476 6.47789 6.47085 6.47465 6.46907 6.47965 6.47596 6.48011 6.49157 6.49562 6.49989 6.48531 6.47936 6.46764 6.46266 6.46046 6.45683 6.45466 6.45372 6.45324 6.45291 6.4529 6.45279 6.45278 6.45259 6.45177 6.45177 6.45177 6.45177 6.45177 6.45177 6.45177 6.45177 6.45177 6.45177 6.45177 6.45177 6.45177 6.45177 6.45177 6.45177 6.45177 6.45177 6.45177 6.45177 6.45177 6.45177 6.45177 6.45177 6.45177 6.45177 6.45177 6.45177 6.45177 6.45177 6.45177 6.45177 6.45177 6.45177 6.45177 6.45177 6.45177 6.45177 6.45177 6.45177 6.45177 6.45177 6.45177 6.45177 6.45177 6.45177 6.45177 6.45177 6.45177 6.45177 6.45177 6.45177 6.45177 6.45177 6.45177 6.45177 6.45177 6.45177 6.45177 6.45177 6.45177 6.45177 6.45177 6.45177 6.45177 6.45177 6.45177 6.45177 6.45177 6.45177 6.45177 6.45177 6.45177 6.45177 6.45177 6.45177 6.45177 6.45177 6.45177 6.45177 6.45177 6.45177 6.45177 6.45177 6.45177 6.45177 6.45177 6.45177 6.45177 6.45177 6.45177 6.45177 6.45177 6.45177 6.45177 6.45177 6.45177 6.45177 6.45177 6.45177 6.45177 6.45177 6.45177 6.45177 6.45177 6.45177 6.45177 6.45177 6.45177 6.45177 6.45177 6.45177 6.45177 6.45177 6.45177 6.45177 6.45177 6.45177 6.45177 6.45177 6.45177 6.45177 6.45177 6.45177 6.45177 6.45177 6.45177 6.45177 6.45177 6.45177 6.45177 6.45177 6.45177 6.45177 6.45177 6.45177 6.45177 6.45177 6.45177 6.45177 6.45177 6.45177 6.45177 6.45177 6.45177 6.45177 6.45177 6.45177 6.45177 6.45177 6.45177 6.45177 6.45177 6.45177 6.45177 6.45177 6.45177 6.45177 6.45177 6.45177 6.45177 6.45177 6.45177 6.45177 6.45177 6.45177 6.45177 6.45177 6.45177 6.45177 6.45177 6.45177 6.45177 6.45177 6.45177 6.45177 6.45177 6.45177 6.45177 6.45177 6.45177 6.45177 6.45177 6.45177 6.45177 6.45177 6.45269 6.45269 6.45279 6.4528 6.4528 6.45312 6.45303 6.45282 6.4527 6.45239 6.45249 6.4523 6.45178 6.45161 6.45154 6.45153 6.4523 6.4522 6.4523 6.4528 6.45301 6.45279 6.45268 6.45177 6.45177 6.45177 6.45177 6.45177 6.45177 6.45177 6.45177 6.45177 6.45177 6.45177 6.45177 6.45177 6.45177 6.45177 6.45177 6.45177 6.45177 6.45177 6.45177 6.45177 6.45177 6.45177 6.45177 6.45177 6.45177 6.45177 6.45177 6.45177 6.45177 6.45177 6.45169 6.45177 6.45177 6.45177 6.45177 6.45177 6.45177 6.45177 6.45177 6.45177 6.45177 6.45177 6.45177 6.45177 6.45177 6.45177 6.45177 6.45177 6.45177 6.45177 6.45177 6.45177 6.45177 6.45177 6.45177 6.45177 6.45177 6.45177 6.45177 6.45177 6.45177 6.45177 6.45177 6.45177 6.45177 6.45177 6.45177 6.45177 6.45177 6.45177 6.45177 6.45177 6.45177 6.45177 6.45177 6.45177 6.45177 6.45177 6.45177 6.45177 6.45177 6.45177 6.45177 6.45177 6.45177 6.45177 6.45177 6.45177 6.45177 6.45177 6.45177 6.45177 6.45177
7.8635 7.86059 8.1515 7.97294 7.97839 8.06515 7.8814 8.18459 10.3353 8.37084 8.94501 9.23627 8.58173 7.68474 7.55025 7.54048 8.89749 9.09093 8.19441 7.35209 8.93786 7.17158 7.21366 9.69501 8.44513 8.06278 7.48492 7.28136 7.27731 7.60072 8.17739 9.59064 7.19798 7.46358 6.96519 6.83063 6.82746 6.97212 6.80908 6.72231 6.99111 6.89161 6.64046 6.60408 6.73073 6.55913 6.53462 6.53969 6.50913 6.50598 6.50567 6.5031 6.5065 6.50026 6.48866 6.49521 6.49926 6.50278 6.50215 6.50231 6.52051 6.51127 6.49649 6.492 6.48584 6.48244 6.47932 6.4778 6.47634 6.47557 6.4757 6.47522 6.4751 6.47557 6.47569 6.47409 6.47409 6.47409 6.47409 6.47409 6.47409 6.47409 6.47409 6.47409 6.47409 6.47409 6.47409 6.47409 6.47409 6.47409 6.47409 6.47409 6.47409 6.47409 6.47409 6.47409 6.47409 6.47409 6.47409 6.47409 6.47409 6.47409 6.47409 6.47409 6.47409 6.47409 6.47409 6.47409 6.47409 6.47409 6.47409 6.47409 6.47409 6.47409 6.47409 6.47409 6.47409 6.47409 6.47409 6.47409 6.47409 6.47409 6.47409 6.47409 6.47409 6.47409 6.47409 6.47409 6.47409 6.47409 6.47409 6.47409 6.47409 6.47409 6.47409 6.47409 6.47409 6.47409 6.47409 6.47409 6.47409 6.47409 6.47409 6.47409 6.47409 6.47409 6.47409 6.47409 6.47409 6.47409 6.47409 6.47409 6.47409 6.47409 6.47409 6.47409 6.47409 6.47409 6.47409 6.47409 6.47409 6.47409 6.47409 6.47409 6.47409 6.47409 6.47409 6.47409 6.47409 6.47409 6.47409 6.47409 6.47409 6.47409 6.47409 6.47409 6.47409 6.47409 6.47409 6.47409 6.47409 6.47409 6.47409 6.47409 6.47409 6.47409 6.47409 6.47409 6.47409 6.47409 6.47409 6.47409 6.47409 6.47409 6.47409 6.47409 6.47409 6.47409 6.47409 6.47409 6.47409 6.47409 6.47409 6.47409 6.47409 6.47409 6.47409 6.47409 6.47409 6.47409 6.47409 6.47409 6.47409 6.47409 6.47409 6.47409 6.47409 6.47409 6.47409 6.47409 6.47409 6.47409 6.47409 6.47409 6.47409 6.47409 6.47409 6.47409 6.47409 6.47409 6.47409 6.47409 6.47409 6.47409 6.47409 6.47409 6.47409 6.47409 6.47409 6.47409 6.47409 6.47409 6.47409 6.47409 6.47409 6.47409 6.47409 6.47409 6.47409 6.47409 6.47409 6.47409 6.47409 6.47409 6.47409 6.47409 6.47409 6.47409 6.47409 6.47409 6.47437 6.47488 6.475 6.47488 6.47477 6.47489 6.4751 6.47498 6.47533 6.4751 6.47522 6.47522 6.47478 6.47488 6.47457 6.47409 6.47445 6.47457 6.47457 6.47457 6.47468 6.47534 6.47521 6.47523 6.47409 6.47409 6.47409 6.47409 6.47409 6.47409 6.47409 6.47409 6.47409 6.47409 6.47409 6.47409 6.47409 6.47409 6.47409 6.47409 6.47409 6.47409 6.47418 6.47409 6.47409 6.47409 6.47409 6.47409 6.47409 6.47392 6.47409 6.47409 6.47409 6.47409 6.47409 6.47409 6.47238 6.47409 6.47409 6.47409 6.47409 6.47409 6.47409 6.47409 6.47409 6.47409 6.47409 6.47409 6.47409 6.47409 6.47409 6.47409 6.47409 6.47409 6.47409 6.47409 6.47409 6.47409 6.47409 6.47409 6.47409 6.47409 6.47409 6.47409 6.47409 6.47409 6.47409 6.47409 6.47409 6.47409 6.47409 6.47409 6.47409 6.47409 6.47409 6.47409 6.47409 6.47409 6.47409 6.47409 6.47409 6.47409 6.47409 6.47409 6.47409 6.47409 6.47409 6.47409 6.47409 6.47409 6.47409 6.47409 6.47409 6.47409 6.47409 6.47409 6.47409 6.47409
7.95215 8.05294 8.07476 7.95035 7.85513 8.34325 7.78357 7.82689 9.17454 9.26082 8.99918 8.72482 8.21672 7.4899 7.31917 7.24769 7.22893 7.22882 7.24663 7.68143 7.37128 8.35 7.41667 7.54082 9.72647 8.47707 8.2543 7.55823 7.36573 7.51086 8.02441 7.63276 8.3601 7.21364 7.05738 7.00338 6.91436 7.36555 6.83715 6.80089 7.35885 7.11262 6.67343 6.61938 6.62044 6.58997 6.57465 6.54207 6.53805 6.54493 6.53688 6.53593 6.53037 6.51526 6.50967 6.51763 6.53598 6.51733 6.51682 6.52112 6.53632 6.53578 6.52305 6.51768 6.50884 6.50256 6.49856 6.49775 6.49698 6.49654 6.49603 6.49615 6.49576 6.49577 6.49565 6.49528 6.49443 6.49443 6.49443 6.49443 6.49443 6.49443 6.49443 6.49443 6.49443 6.49443 6.49443 6.49443 6.49443 6.49443 6.49443 6.49443 6.49443 6.49443 6.49443 6.49443 6.49443 6.49443 6.49443 6.49443 6.49443 6.49443 6.49443 6.49443 6.49443 6.49443 6.49443 6.49443 6.49443 6.49443 6.49443 6.49443 6.49443 6.49443 6.49443 6.49443 6.49443 6.49443 6.49443 6.49443 6.49443 6.49443 6.49443 6.49443 6.49443 6.49443 6.49443 6.49443 6.49443 6.49443 6.49443 6.49443 6.49443 6.49443 6.49443 6.49443 6.49443 6.49443 6.49443 6.49443 6.49443 6.49443 6.49443 6.49443 6.49443 6.49443 6.49443 6.49443 6.49443 6.49443 6.49443 6.49443 6.49443 6.49443 6.49443 6.49443 6.49443 6.49443 6.49443 6.49443 6.49443 6.49443 6.49443 6.49443 6.49443 6.49443 6.49443 6.49443 6.49443 6.49443 6.49443 6.49443 6.49443 6.49443 6.49443 6.49443 6.49443 6.49443 6.49443 6.49443 6.49443 6.49443 6.49443 6.49443 6.49443 6.49443 6.49443 6.49443 6.49443 6.49443 6.49443 6.49443 6.49443 6.49443 6.49443 6.49443 6.49443 6.49443 6.49443 6.49443 6.49443 6.49443 6.49443 6.49443 6.49443 6.49443 6.49443 6.49443 6.49443 6.49443 6.49443 6.49443 6.49443 6.49443 6.49443 6.49443 6.49443 6.49443 6.49443 6.49443 6.49443 6.49443 6.49443 6.49443 6.49443 6.49443 6.49443 6.49443 6.49443 6.49443 6.49443 6.49443 6.49443 6.49443 6.49443 6.49443 6.49443 6.49443 6.49443 6.49443 6.49443 6.49443 6.49443 6.49443 6.49443 6.49443 6.49443 6.49443 6.49443 6.49443 6.49443 6.49443 6.49443 6.49443 6.49443 6.49443 6.49443 6.49443 6.49443 6.49443 6.49484 6.49495 6.49443 6.49564 6.49552 6.49576 6.49576 6.49564 6.49564 6.49564 6.49576 6.49564 6.49551 6.49516 6.49528 6.49517 6.49495 6.49484 6.49495 6.49495 6.49528 6.49517 6.49529 6.49564 6.49448 6.49443 6.49443 6.49443 6.49443 6.49443 6.49443 6.49443 6.49443 6.49443 6.49443 6.49443 6.49443 6.49443 6.49443 6.49443 6.49443 6.49443 6.49494 6.49495 6.49486 6.49517 6.49443 6.49443 6.49443 6.49443 6.49443 6.49443 6.49443 6.49443 6.49443 6.49443 6.49443 6.49473 6.49443 6.49443 6.49443 6.49443 6.49443 6.49443 6.49443 6.49443 6.49443 6.49443 6.49443 6.49443 6.49443 6.49443 6.49443 6.49443 6.49443 6.49443 6.49443 6.49443 6.49443 6.49443 6.49443 6.49443 6.49443 6.49443 6.49443 6.49443 6.49443 6.49443 6.49443 6.49443 6.49443 6.49443 6.49443 6.49443 6.49443 6.49443 6.49443 6.49443 6.49443 6.49443 6.49443 6.49443 6.49443 6.49443 6.49443 6.49443 6.49443 6.49443 6.49443 6.49443 6.49443 6.49443 6.49443 6.49443 6.49443 6.49443 6.49443 6.49443
7.99351 8.09546 8.49861 7.96822 8.06639 9.04632 7.9609 7.77481 7.90022 9.54312 9.05184 7.67535 7.88453 8.05687 7.30258 7.32148 7.63734 7.96667 7.64102 7.50298 9.26272 7.53491 9.40333 8.00882 7.92234 8.62732 8.06748 8.47437 7.74954 7.44714 7.39595 7.34677 7.31595 7.40716 7.15206 6.97889 6.8958 6.89573 7.07399 6.79248 6.94962 6.86216 6.76346 6.63202 6.61526 6.60253 6.58179 6.5758 6.5713 6.56494 6.55763 6.55363 6.55918 6.54968 6.53323 6.53364 6.54044 6.53942 6.53327 6.53787 6.55706 6.54573 6.54656 6.54167 6.53488 6.52537 6.52105 6.51841 6.51723 6.51736 6.51739 6.51723 6.5168 6.51628 6.51628 6.51604 6.51523 6.51523 6.51523 6.51523 6.51523 6.51523 6.51523 6.51523 6.51523 6.51523 6.51523 6.51523 6.51523 6.51523 6.51523 6.51523 6.51523 6.51523 6.51523 6.51523 6.51523 6.51523 6.51523 6.51523 6.51523 6.51523 6.51523 6.51523 6.51523 6.51523 6.51523 6.51523 6.51523 6.51523 6.51523 6.51523 6.51523 6.51523 6.51523 6.51523 6.51523 6.51523 6.51523 6.51523 6.51523 6.51523 6.51523 6.51523 6.51523 6.51523 6.51523 6.51523 6.51523 6.51523 6.51523 6.51523 6.51523 6.51523 6.51523 6.51523 6.51523 6.51523 6.51523 6.51523 6.51523 6.51523 6.51523 6.51523 6.51523 6.51523 6.51523 6.51523 6.51523 6.51523 6.51523 6.51523 6.51523 6.51523 6.51523 6.51523 6.51523 6.51523 6.51523 6.51523 6.51523 6.51523 6.51523 6.51523 6.51523 6.51523 6.51523 6.51523 6.51523 6.51523 6.51523 6.51523 6.51523 6.51523 6.51523 6.51523 6.51523 6.51523 6.51523 6.51523 6.51523 6.51523 6.51523 6.51523 6.51523 6.51523 6.51523 6.51523 6.51523 6.51523 6.51523 6.51523 6.51523 6.51523 6.51523 6.51523 6.51523 6.51523 6.51523 6.51523 6.51523 6.51523 6.51523 6.51523 6.51523 6.51523 6.51523 6.51523 6.51523 6.51523 6.51523 6.51523 6.51523 6.51523 6.51523 6.51523 6.51523 6.51523 6.51523 6.51523 6.51523 6.51523 6.51523 6.51523 6.51523 6.51523 6.51523 6.51523 6.51523 6.51523 6.51523 6.51523 6.51523 6.51523 6.51523 6.51523 6.51523 6.51523 6.51523 6.51523 6.51523 6.51523 6.51523 6.51523 6.51523 6.51523 6.51523 6.51523 6.51523 6.51523 6.51523 6.51523 6.51523 6.51523 6.51523 6.51523 6.51523 6.51523 6.51523 6.51523 6.51523 6.51523 6.51591 6.51628 6.51665 6.5168 6.5168 6.51707 6.51666 6.51653 6.51666 6.5164 6.51653 6.51654 6.51603 6.51602 6.51591 6.51579 6.51567 6.51567 6.51603 6.51615 6.5164 6.51653 6.51523 6.51523 6.51523 6.51523 6.51523 6.51523 6.51523 6.51523 6.51523 6.51523 6.51523 6.51523 6.51523 6.51523 6.51523 6.51523 6.51554 6.51615 6.51523 6.51523 6.51523 6.51523 6.51523 6.51523 6.51523 6.51523 6.51523 6.51523 6.51523 6.51523 6.51523 6.51523 6.51523 6.51523 6.51523 6.51513 6.51523 6.51523 6.51523 6.51523 6.51523 6.51523 6.51523 6.51523 6.51523 6.51523 6.51523 6.51523 6.51523 6.51523 6.51523 6.51523 6.51523 6.51523 6.51523 6.51523 6.51523 6.51523 6.51523 6.51523 6.51523 6.51523 6.51523 6.51523 6.51523 6.51523 6.51523 6.51523 6.51523 6.51523 6.51523 6.51523 6.51523 6.51523 6.51523 6.51523 6.51523 6.51523 6.51523 6.51523 6.51523 6.51523 6.51523 6.51523 6.51523 6.51523 6.51523 6.51523 6.51523 6.51523 6.51523 6.51523 6.51523 6.51523
8.00461 8.06694 8.36342 7.91352 7.86791 9.45367 8.17745 7.81376 7.80907 10.2869 7.80329 7.48627 7.92184 7.90063 7.35697 7.76499 8.28072 8.7605 8.67915 8.08983 7.85593 7.82182 7.82173 10.1665 9.37879 9.28131 8.62001 8.33959 7.75756 7.5002 7.37687 7.27968 7.20615 7.24407 7.13691 7.03707 6.9995 6.91596 7.50857 6.87466 6.84408 6.86475 6.86656 6.6607 6.64067 6.62826 6.61429 6.60786 6.60102 6.59861 6.58838 6.58031 6.57153 6.56639 6.56128 6.55793 6.56195 6.55513 6.56072 6.5555 6.56921 6.56404 6.56708 6.5613 6.55854 6.55063 6.54561 6.5431 6.54244 6.54178 6.54104 6.54089 6.5406 6.54033 6.54019 6.53922 6.5392 6.5392 6.5392 6.5392 6.5392 6.5392 6.5392 6.5392 6.5392 6.5392 6.5392 6.5392 6.5392 6.5392 6.5392 6.5392 6.5392 6.5392 6.5392 6.5392 6.5392 6.5392 6.5392 6.5392 6.5392 6.5392 6.5392 6.5392 6.5392 6.5392 6.5392 6.5392 6.5392 6.5392 6.5392 6.5392 6.5392 6.5392 6.5392 6.5392 6.5392 6.5392 6.5392 6.5392 6.5392 6.5392 6.5392 6.5392 6.5392 6.5392 6.5392 6.5392 6.5392 6.5392 6.5392 6.5392 6.5392 6.5392 6.5392 6.5392 6.5392 6.5392 6.5392 6.5392 6.5392 6.5392 6.5392 6.5392 6.5392 6.5392 6.5392 6.5392 6.5392 6.5392 6.5392 6.5392 6.5392 6.5392 6.5392 6.5392 6.5392 6.5392 6.5392 6.5392 6.5392 6.5392 6.5392 6.5392 6.5392 6.5392 6.5392 6.5392 6.5392 6.5392 6.5392 6.5392 6.5392 6.5392 6.5392 6.5392 6.5392 6.5392 6.5392 6.5392 6.5392 6.5392 6.5392 6.5392 6.5392 6.5392 6.5392 6.5392 6.5392 6.5392 6.5392 6.5392 6.5392 6.5392 6.5392 6.5392 6.5392 6.5392 6.5392 6.5392 6.5392 6.5392 6.5392 6.5392 6.5392 6.5392 6.5392 6.5392 6.5392 6.5392 6.5392 6.5392 6.5392 6.5392 6.5392 6.5392 6.5392 6.5392 6.5392 6.5392 6.5392 6.5392 6.5392 6.5392 6.5392 6.5392 6.5392 6.5392 6.5392 6.5392 6.5392 6.5392 6.5392 6.5392 6.5392 6.5392 6.5392 6.5392 6.5392 6.5392 6.5392 6.5392 6.5392 6.5392 6.5392 6.5392 6.5392 6.5392 6.5392 6.5392 6.5392 6.5392 6.5392 6.5392 6.5392 6.5392 6.5392 6.5392 6.5392 6.5392 6.5392 6.5392 6.5392 6.54045 6.54047 6.54088 6.54048 6.54103 6.54103 6.54062 6.54074 6.54103 6.54074 6.54034 6.53994 6.53993 6.54006 6.53981 6.5398 6.5398 6.53993 6.54006 6.54005 6.5406 6.5392 6.5392 6.5392 6.5392 6.5392 6.5392 6.5392 6.5392 6.5392 6.5392 6.5392 6.5392 6.5392 6.5392 6.5392 6.5392 6.5392 6.5392 6.5392 6.5392 6.5392 6.5392 6.5392 6.5392 6.5392 6.5392 6.5392 6.5392 6.5392 6.5392 6.5392 6.5392 6.5392 6.5392 6.5392 6.53944 6.53908 6.5392 6.5392 6.5392 6.5392 6.5392 6.5392 6.5392 6.5392 6.5392 6.5392 6.5392 6.5392 6.5392 6.5392 6.5392 6.5392 6.5392 6.5392 6.5392 6.5392 6.5392 6.5392 6.5392 6.5392 6.5392 6.5392 6.5392 6.5392 6.5392 6.5392 6.5392 6.5392 6.5392 6.5392 6.5392 6.5392 6.5392 6.5392 6.5392 6.5392 6.5392 6.5392 6.5392 6.5392 6.5392 6.5392 6.5392 6.5392 6.5392 6.5392 6.5392 6.5392 6.5392 6.5392 6.5392 6.5392 6.5392
7.92199 7.94049 8.23085 7.92584 7.88226 8.37323 9.25064 7.86229 7.85825 9.01694 7.93553 7.46621 7.39893 7.5273 7.74062 8.13325 8.60528 8.93014 8.90197 8.4966 8.37161 7.76362 7.71268 8.06248 9.08263 9.40881 9.56708 8.11551 7.82793 7.76768 9.22054 7.30599 7.25222 7.17499 7.09778 7.04235 7.29128 7.0775 7.27076 7.47322 6.86735 6.86449 7.55379 6.76432 6.68441 6.66792 6.663 6.65211 6.64092 6.6319 6.62098 6.60046 6.58867 6.58473 6.58582 6.57559 6.57299 6.57086 6.57218 6.57113 6.57882 6.58098 6.58362 6.57764 6.57615 6.57139 6.56734 6.56531 6.5646 6.56392 6.56326 6.56309 6.56264 6.56235 6.56207 6.5618 6.56101 6.56101 6.56101 6.56101 6.56101 6.56101 6.56101 6.56101 6.56101 6.56101 6.56101 6.56101 6.56101 6.56101 6.56101 6.56101 6.56101 6.56101 6.56101 6.56101 6.56101 6.56101 6.56101 6.56101 6.56101 6.56101 6.56101 6.56101 6.56101 6.56101 6.56101 6.56101 6.56101 6.56101 6.56101 6.56101 6.56101 6.56101 6.56101 6.56101 6.56101 6.56101 6.56101 6.56101 6.56101 6.56101 6.56101 6.56101 6.56101 6.56101 6.56101 6.56101 6.56101 6.56101 6.56101 6.56101 6.56101 6.56101 6.56101 6.56101 6.56101 6.56101 6.56101 6.56101 6.56101 6.56101 6.56101 6.56101 6.56101 6.56101 6.56101 6.56101 6.56101 6.56101 6.56101 6.56101 6.56101 6.56101 6.56101 6.56101 6.56101 6.56101 6.56101 6.56101 6.56101 6.56101 6.56101 6.56101 6.56101 6.56101 6.56101 6.56101 6.56101 6.56101 6.56101 6.56101 6.56101 6.56101 6.56101 6.56101 6.56101 6.56101 6.56101 6.56101 6.56101 6.56101 6.56101 6.56101 6.56101 6.56101 6.56101 6.56101 6.56101 6.56101 6.56101 6.56101 6.56101 6.56101 6.56101 6.56101 6.56101 6.56101 6.56101 6.56101 6.56101 6.56101 6.56101 6.56101 6.56101 6.56101 6.56101 6.56101 6.56101 6.56101 6.56101 6.56101 6.56101 6.56101 6.56101 6.56101 6.56101 6.56101 6.56101 6.56101 6.56101 6.56101 6.56101 6.56101 6.56101 6.56101 6.56101 6.56101 6.56101 6.56101 6.56101 6.56101 6.56101 6.56101 6.56101 6.56101 6.56101 6.56101 6.56101 6.56101 6.56101 6.56101 6.56101 6.56101 6.56101 6.56101 6.56101 6.56101 6.56101 6.56101 6.56101 6.56101 6.56101 6.56101 6.56101 6.56101 6.56101 6.56101 6.56101 6.56101 6.56101 6.56101 6.56101 6.5622 6.56251 6.56305 6.5625 6.5625 6.5625 6.56282 6.5628 6.56296 6.56313 6.5625 6.56192 6.56192 6.56178 6.56165 6.56165 6.56165 6.56179 6.56192 6.5622 6.56236 6.56101 6.56101 6.56101 6.56101 6.56101 6.56101 6.56101 6.56101 6.56101 6.56101 6.56101 6.56101 6.56101 6.56101 6.56101 6.56101 6.56101 6.56101 6.56101 6.56101 6.56101 6.56101 6.56101 6.56101 6.56101 6.56101 6.56101 6.56101 6.56101 6.56101 6.56101 6.56101 6.56101 6.56101 6.84106 6.55941 6.56235 6.56101 6.56101 6.56101 6.56101 6.56101 6.56101 6.56101 6.56101 6.56101 6.56101 6.56101 6.56101 6.56101 6.56101 6.56101 6.56101 6.56101 6.56101 6.56101 6.56101 6.56101 6.56101 6.56101 6.56101 6.56101 6.56101 6.56101 6.56101 6.56101 6.56101 6.56101 6.56101 6.56101 6.56101 6.56101 6.56101 6.56101 6.56101 6.56101 6.56101 6.56101 6.56101 6.56101 6.56101 6.56101 6.56101 6.56101 6.56101 6.56101 6.56101 6.56101 6.56101 6.56101 6.56101 6.56101 6.56101 6.56101
7.92495 7.92063 8.81233 7.90778 7.8951 8.3695 8.84184 7.97978 7.90508 10.1839 8.74404 7.44427 7.41903 7.47744 8.07629 8.39543 8.91185 9.38304 9.58388 8.84074 8.99221 8.02266 7.87664 7.85505 8.06046 8.31535 8.17468 8.01821 8.15023 9.93499 8.53866 7.44395 7.47235 7.17275 7.1754 7.14983 7.24935 8.43457 7.20292 9.99521 6.97707 7.90945 7.35582 6.93234 6.81089 6.78031 6.77247 6.72551 6.68887 6.66512 6.64707 6.62672 6.61522 6.61354 6.6115 6.61254 6.60962 6.60144 6.59991 6.59209 6.59097 6.59518 6.59908 6.59721 6.59625 6.59237 6.58881 6.58842 6.58708 6.58673 6.58602 6.58552 6.58519 6.58488 6.58457 6.58413 6.58398 6.5833 6.5833 6.5833 6.5833 6.5833 6.5833 6.5833 6.5833 6.5833 6.5833 6.5833 6.5833 6.5833 6.5833 6.5833 6.5833 6.5833 6.5833 6.5833 6.5833 6.5833 6.5833 6.5833 6.5833 6.5833 6.5833 6.5833 6.5833 6.5833 6.5833 6.5833 6.5833 6.5833 6.5833 6.5833 6.5833 6.5833 6.5833 6.5833 6.5833 6.5833 6.5833 6.5833 6.5833 6.5833 6.5833 6.5833 6.5833 6.5833 6.5833 6.5833 6.5833 6.5833 6.5833 6.5833 6.5833 6.5833 6.5833 6.5833 6.5833 6.5833 6.5833 6.5833 6.5833 6.5833 6.5833 6.5833 6.5833 6.5833 6.5833 6.5833 6.5833 6.5833 6.5833 6.5833 6.5833 6.5833 6.5833 6.5833 6.5833 6.5833 6.5833 6.5833 6.5833 6.5833 6.5833 6.5833 6.5833 6.5833 6.5833 6.5833 6.5833 6.5833 6.5833 6.5833 6.5833 6.5833 6.5833 6.5833 6.5833 6.5833 6.5833 6.5833 6.5833 6.5833 6.5833 6.5833 6.5833 6.5833 6.5833 6.5833 6.5833 6.5833 6.5833 6.5833 6.5833 6.5833 6.5833 6.5833 6.5833 6.5833 6.5833 6.5833 6.5833 6.5833 6.5833 6.5833 6.5833 6.5833 6.5833 6.5833 6.5833 6.5833 6.5833 6.5833 6.5833 6.5833 6.5833 6.5833 6.5833 6.5833 6.5833 6.5833 6.5833 6.5833 6.5833 6.5833 6.5833 6.5833 6.5833 6.5833 6.5833 6.5833 6.5833 6.5833 6.5833 6.5833 6.5833 6.5833 6.5833 6.5833 6.5833 6.5833 6.5833 6.5833 6.5833 6.5833 6.5833 6.5833 6.5833 6.5833 6.5833 6.5833 6.5833 6.5833 6.5833 6.5833 6.5833 6.5833 6.5833 6.5833 6.5833 6.5833 6.5833 6.5833 6.5833 6.58427 6.58469 6.5846 6.58427 6.58519 6.58488 6.58456 6.58473 6.58488 6.58566 6.58473 6.58427 6.58413 6.58398 6.58384 6.58398 6.58398 6.58398 6.58412 6.58473 6.58441 6.5833 6.5833 6.5833 6.5833 6.5833 6.5833 6.5833 6.5833 6.5833 6.5833 6.5833 6.5833 6.5833 6.5833 6.5833 6.5833 6.5833 6.5833 6.5833 6.5833 6.5833 6.5833 6.5833 6.5833 6.5833 6.5833 6.5833 6.5833 6.5833 6.5833 6.5833 6.5833 6.5833 6.5833 6.5833 6.58423 6.5833 6.5833 6.5833 6.5833 6.5833 6.5833 6.5833 6.5833 6.5833 6.5833 6.5833 6.5833 6.5833 6.5833 6.5833 6.5833 6.5833 6.5833 6.5833 6.5833 6.5833 6.5833 6.5833 6.5833 6.5833 6.5833 6.5833 6.5833 6.5833 6.5833 6.5833 6.5833 6.5833 6.5833 6.5833 6.5833 6.5833 6.5833 6.5833 6.5833 6.5833 6.5833 6.5833 6.5833 6.5833 6.5833 6.5833 6.5833 6.5833 6.5833 6.5833 6.5833 6.5833 6.5833 6.5833 6.5833 6.5833 6.5833
7.93803 7.92525 8.10003 7.92777 7.92585 8.7516 8.61635 7.96636 8.38682 9.33419 9.37898 7.67525 7.47687 7.56604 8.6055 8.69754 8.93774 9.21416 9.1699 8.91556 9.40768 9.80439 8.11783 7.95507 8.11054 8.10847 8.21234 8.67783 7.87071 7.83717 7.87476 8.48649 7.38444 7.86013 7.70044 7.57117 7.43529 7.20418 7.12523 7.23741 7.16368 7.11289 7.15904 7.18849 7.13273 7.88699 7.05621 6.83354 6.74188 6.713 6.67369 6.65875 6.64774 6.64895 6.64875 6.63173 6.62626 6.62467 6.62158 6.62819 6.62108 6.61677 6.61606 6.61564 6.61657 6.61702 6.61632 6.61476 6.61353 6.61239 6.6122 6.61165 6.61129 6.61063 6.61047 6.61046 6.60979 6.60895 6.60895 6.60895 6.60895 6.60895 6.60895 6.60895 6.60895 6.60895 6.60895 6.60895 6.60895 6.60895 6.60895 6.60895 6.60895 6.60895 6.60895 6.60895 6.60895 6.60895 6.60895 6.60895 6.60895 6.60895 6.60895 6.60895 6.60895 6.60895 6.60895 6.60895 6.60895 6.60895 6.60895 6.60895 6.60895 6.60895 6.60895 6.60895 6.60895 6.60895 6.60895 6.60895 6.60895 6.60895 6.60895 6.60895 6.60895 6.60895 6.60895 6.60895 6.60895 6.60895 6.60895 6.60895 6.60895 6.60895 6.60895 6.60895 6.60895 6.60895 6.60895 6.60895 6.60895 6.60895 6.60895 6.60895 6.60895 6.60895 6.60895 6.60895 6.60895 6.60895 6.60895 6.60895 6.60895 6.60895 6.60895 6.60895 6.60895 6.60895 6.60895 6.60895 6.60895 6.60895 6.60895 6.60895 6.60895 6.60895 6.60895 6.60895 6.60895 6.60895 6.60895 6.60895 6.60895 6.60895 6.60895 6.60895 6.60895 6.60895 6.60895 6.60895 6.60895 6.60895 6.60895 6.60895 6.60895 6.60895 6.60895 6.60895 6.60895 6.60895 6.60895 6.60895 6.60895 6.60895 6.60895 6.60895 6.60895 6.60895 6.60895 6.60895 6.60895 6.60895 6.60895 6.60895 6.60895 6.60895 6.60895 6.60895 6.60895 6.60895 6.60895 6.60895 6.60895 6.60895 6.60895 6.60895 6.60895 6.60895 6.60895 6.60895 6.60895 6.60895 6.60895 6.60895 6.60895 6.60895 6.60895 6.60895 6.60895 6.60895 6.60895 6.60895 6.60895 6.60895 6.60895 6.60895 6.60895 6.60895 6.60895 6.60895 6.60895 6.60895 6.60895 6.60895 6.60895 6.60895 6.60895 6.60895 6.60895 6.60895 6.60895 6.60895 6.60895 6.60895 6.60895 6.60895 6.60895 6.60895 6.60895 6.60895 6.60895 6.60895 6.60895 6.61046 6.61045 6.6103 6.6103 6.61062 6.61078 6.61095 6.61031 6.61094 6.61065 6.61098 6.61 6.60968 6.60968 6.60953 6.60968 6.60968 6.60968 6.60982 6.60983 6.61015 6.60895 6.60895 6.60895 6.60895 6.60895 6.60895 6.60895 6.60895 6.60895 6.60895 6.60895 6.60895 6.60895 6.60895 6.60895 6.60895 6.60895 6.60895 6.60895 6.60895 6.60895 6.60895 6.60895 6.60895 6.60895 6.60895 6.60895 6.60895 6.60895 6.60895 6.60895 6.60895 6.60895 6.60895 6.60953 6.60895 6.60895 6.60895 6.60895 6.60895 6.60895 6.60895 6.60895 6.60895 6.60895 6.60895 6.60895 6.60895 6.60895 6.60895 6.60895 6.60895 6.60895 6.60895 6.60895 6.60895 6.60895 6.60895 6.60895 6.60895 6.60895 6.60895 6.60895 6.60895 6.60895 6.60895 6.60895 6.60895 6.60895 6.60895 6.60895 6.60895 6.60895 6.60895 6.60895 6.60895 6.60895 6.60895 6.60895 6.60895 6.60895 6.60895 6.60895 6.60895 6.60895 6.60895 6.60895 6.60895 6.60895 6.60895 6.60895 6.60895 6.60895 6.60895
7.96969 7.95445 7.95662 7.95438 7.9544 8.15959 8.06022 7.96269 8.00408 8.38884 8.42224 9.18832 8.33755 7.63835 8.38518 8.98178 8.63532 8.57111 8.57821 9.02915 8.82042 9.35329 9.26451 8.18686 8.16016 8.37868 10.0968 8.97053 7.93369 7.70008 7.62991 7.71455 7.64595 7.93359 7.67053 7.57259 7.74629 7.66266 9.50321 7.10299 7.02004 7.09293 6.96102 7.01841 7.21368 7.95216 7.43435 7.03738 6.8193 6.75291 6.71377 6.69351 6.67703 6.66606 6.66063 6.65578 6.65379 6.65008 6.64979 6.65109 6.64611 6.64543 6.64087 6.64139 6.64402 6.63858 6.6377 6.63729 6.63707 6.63668 6.6357 6.63493 6.63492 6.63475 6.63369 6.63353 6.63371 6.63227 6.63227 6.63227 6.63227 6.63227 6.63227 6.63227 6.63227 6.63227 6.63227 6.63227 6.63227 6.63227 6.63227 6.63227 6.63227 6.63227 6.63227 6.63227 6.63227 6.63227 6.63227 6.63227 6.63227 6.63227 6.63227 6.63227 6.63227 6.63227 6.63227 6.63227 6.63227 6.63227 6.63227 6.63227 6.63227 6.63227 6.63227 6.63227 6.63227 6.63227 6.63227 6.63227 6.63227 6.63227 6.63227 6.63227 6.63227 6.63227 6.63227 6.63227 6.63227 6.63227 6.63227 6.63227 6.63227 6.63227 6.63227 6.63227 6.63227 6.63227 6.63227 6.63227 6.63227 6.63227 6.63227 6.63227 6.63227 6.63227 6.63227 6.63227 6.63227 6.63227 6.63227 6.63227 6.63227 6.63227 6.63227 6.63227 6.63227 6.63227 6.63227 6.63227 6.63227 6.63227 6.63227 6.63227 6.63227 6.63227 6.63227 6.63227 6.63227 6.63227 6.63227 6.63227 6.63227 6.63227 6.63227 6.63227 6.63227 6.63227 6.63227 6.63227 6.63227 6.63227 6.63227 6.63227 6.63227 6.63227 6.63227 6.63227 6.63227 6.63227 6.63227 6.63227 6.63227 6.63227 6.63227 6.63227 6.63227 6.63227 6.63227 6.63227 6.63227 6.63227 6.63227 6.63227 6.63227 6.63227 6.63227 6.63227 6.63227 6.63227 6.63227 6.63227 6.63227 6.63227 6.63227 6.63227 6.63227 6.63227 6.63227 6.63227 6.63227 6.63227 6.63227 6.63227 6.63227 6.63227 6.63227 6.63227 6.63227 6.63227 6.63227 6.63227 6.63227 6.63227 6.63227 6.63227 6.63227 6.63227 6.63227 6.63227 6.63227 6.63227 6.63227 6.63227 6.63227 6.63227 6.63227 6.63227 6.63227 6.63227 6.63227 6.63227 6.63227 6.63227 6.63227 6.63227 6.63227 6.63227 6.63227 6.63227 6.63227 6.63227 6.63227 6.63273 6.63403 6.63389 6.63353 6.6337 6.6344 6.63354 6.63403 6.63336 6.63337 6.63337 6.63321 6.63304 6.6332 6.63336 6.6332 6.63305 6.63319 6.63321 6.63335 6.63372 6.63227 6.63227 6.63227 6.63227 6.63227 6.63227 6.63227 6.63227 6.63227 6.63227 6.63227 6.63227 6.63227 6.63227 6.63227 6.63227 6.63227 6.63227 6.63227 6.63227 6.63227 6.63227 6.63227 6.63227 6.63227 6.63227 6.63227 6.63227 6.63227 6.63227 6.63227 6.63227 6.63227 6.63227 6.63257 6.63227 6.63227 6.63227 6.63227 6.63227 6.63227 6.63227 6.63227 6.63227 6.63227 6.63227 6.63227 6.63227 6.63227 6.63227 6.63227 6.63227 6.63227 6.63227 6.63227 6.63227 6.63227 6.63227 6.63227 6.63227 6.63227 6.63227 6.63227 6.63227 6.63227 6.63227 6.63227 6.63227 6.63227 6.63227 6.63227 6.63227 6.63227 6.63227 6.63227 6.63227 6.63227 6.63227 6.63227 6.63227 6.63227 6.63227 6.63227 6.63227 6.63227 6.63227 6.63227 6.63227 6.63227 6.63227 6.63227 6.63227 6.63227 6.63227
8.07504 7.98627 7.9882 7.98832 7.97792 7.98826 7.98613 7.99667 7.98418 7.9841 7.98203 7.98066 8.12708 8.43163 8.25158 8.49275 8.32914 8.28491 8.28729 8.64116 9.83776 9.18787 9.27861 8.47985 8.79861 10.4116 9.55025 8.90573 8.00919 7.72496 7.59387 7.56004 7.65504 8.12428 7.52155 7.82976 7.95421 7.2354 7.23824 7.70152 7.19006 6.95008 6.93246 7.0779 7.1237 7.44958 7.54439 7.35377 6.88967 6.79839 6.76541 6.7148 6.69936 6.69416 6.68602 6.68025 6.67711 6.6828 6.67731 6.68219 6.67411 6.6757 6.66868 6.68554 6.67159 6.66415 6.66261 6.66175 6.66109 6.66088 6.66006 6.65985 6.65904 6.65849 6.65793 6.65706 6.65674 6.65624 6.65609 6.65609 6.65609 6.65609 6.65609 6.65609 6.65609 6.65609 6.65609 6.65609 6.65609 6.65609 6.65609 6.65609 6.65609 6.65609 6.65609 6.65609 6.65609 6.65609 6.65609 6.65609 6.65609 6.65609 6.65609 6.65609 6.65609 6.65609 6.65609 6.65609 6.65609 6.65609 6.65609 6.65609 6.65609 6.65609 6.65609 6.65609 6.65609 6.65609 6.65609 6.65609 6.65609 6.65609 6.65609 6.65609 6.65609 6.65609 6.65609 6.65609 6.65609 6.65609 6.65609 6.65609 6.65609 6.65609 6.65609 6.65609 6.65609 6.65609 6.65609 6.65609 6.65609 6.65609 6.65609 6.65609 6.65609 6.65609 6.65609 6.65609 6.65609 6.65609 6.65609 6.65609 6.65609 6.65609 6.65609 6.65609 6.65609 6.65609 6.65609 6.65609 6.65609 6.65609 6.65609 6.65609 6.65609 6.65609 6.65609 6.65609 6.65609 6.65609 6.65609 6.65609 6.65609 6.65609 6.65609 6.65609 6.65609 6.65609 6.65609 6.65609 6.65609 6.65609 6.65609 6.65609 6.65609 6.65609 6.65609 6.65609 6.65609 6.65609 6.65609 6.65609 6.65609 6.65609 6.65609 6.65609 6.65609 6.65609 6.65609 6.65609 6.65609 6.65609 6.65609 6.65609 6.65609 6.65609 6.65609 6.65609 6.65609 6.65609 6.65609 6.65609 6.65609 6.65609 6.65609 6.65609 6.65609 6.65609 6.65609 6.65609 6.65609 6.65609 6.65609 6.65609 6.65609 6.65609 6.65609 6.65609 6.65609 6.65609 6.65609 6.65609 6.65609 6.65609 6.65609 6.65609 6.65609 6.65609 6.65609 6.65609 6.65609 6.65609 6.65609 6.65609 6.65609 6.65609 6.65609 6.65609 6.65609 6.65609 6.65609 6.65609 6.65609 6.65609 6.65609 6.65609 6.65609 6.65609 6.65609 6.65609 6.65609 6.65609 6.65609 6.65609 6.65694 6.65707 6.65761 6.65743 6.65776 6.65757 6.65707 6.65724 6.6574 6.65707 6.65723 6.65706 6.65723 6.65706 6.65689 6.6569 6.65707 6.65706 6.65739 6.6574 6.65609 6.65609 6.65609 6.65609 6.65609 6.65609 6.65609 6.65609 6.65609 6.65609 6.65609 6.65609 6.65609 6.65609 6.65609 6.65609 6.65609 6.65609 6.65609 6.65609 6.65609 6.65609 6.65609 6.65609 6.65609 6.65609 6.65609 6.65609 6.65609 6.65609 6.65609 6.65609 6.65609 6.65656 6.65722 6.65609 6.65609 6.65609 6.65609 6.65609 6.65609 6.65609 6.65609 6.65609 6.65609 6.65609 6.65609 6.65609 6.65609 6.65609 6.65609 6.65609 6.65609 6.65609 6.65609 6.65609 6.65609 6.65609 6.65609 6.65609 6.65609 6.65609 6.65609 6.65609 6.65609 6.65609 6.65609 6.65609 6.65609 6.65609 6.65609 6.65609 6.65609 6.65609 6.65609 6.65609 6.65609 6.65609 6.65609 6.65609 6.65609 6.65609 6.65609 6.65609 6.65609 6.65609 6.65609 6.65609 6.65609 6.65609 6.65609 6.65609 6.65609 6.65609
8.70897 8.02625 8.02394 8.02196 8.01761 8.02814 8.02598 8.02815 8.02206 8.10064 8.00949 8.00936 8.01295 8.91752 8.36887 8.54597 8.08521 8.04415 8.09653 8.68726 8.55446 8.64432 8.68569 8.813 9.29309 10.1806 10.3487 9.11837 8.05685 7.77136 7.77273 7.54815 7.47614 7.43058 7.43853 7.46028 7.24751 7.16859 7.24945 7.15819 7.34723 6.97456 6.93438 6.93989 7.11332 7.08375 7.59791 7.23744 6.88671 6.81081 6.7715 6.74833 6.73166 6.72609 6.71403 6.71905 6.70771 6.72377 6.71354 6.71448 6.71748 6.71059 6.70172 6.72167 6.70556 6.69727 6.69207 6.68961 6.68962 6.68893 6.68785 6.68701 6.68601 6.6858 6.68542 6.68485 6.68398 6.68343 6.68347 6.68347 6.68347 6.68347 6.68347 6.68347 6.68347 6.68347 6.68347 6.68347 6.68347 6.68347 6.68347 6.68347 6.68347 6.68347 6.68347 6.68347 6.68347 6.68347 6.68347 6.68347 6.68347 6.68347 6.68347 6.68347 6.68347 6.68347 6.68347 6.68347 6.68347 6.68347 6.68347 6.68347 6.68347 6.68347 6.68347 6.68347 6.68347 6.68347 6.68347 6.68347 6.68347 6.68347 6.68347 6.68347 6.68347 6.68347 6.68347 6.68347 6.68347 6.68347 6.68347 6.68347 6.68347 6.68347 6.68347 6.68347 6.68347 6.68347 6.68347 6.68347 6.68347 6.68347 6.68347 6.68347 6.68347 6.68347 6.68347 6.68347 6.68347 6.68347 6.68347 6.68347 6.68347 6.68347 6.68347 6.68347 6.68347 6.68347 6.68347 6.68347 6.68347 6.68347 6.68347 6.68347 6.68347 6.68347 6.68347 6.68347 6.68347 6.68347 6.68347 6.68347 6.68347 6.68347 6.68347 6.68347 6.68347 6.68347 6.68347 6.68347 6.68347 6.68347 6.68347 6.68347 6.68347 6.68347 6.68347 6.68347 6.68347 6.68347 6.68347 6.68347 6.68347 6.68347 6.68347 6.68347 6.68347 6.68347 6.68347 6.68347 6.68347 6.68347 6.68347 6.68347 6.68347 6.68347 6.68347 6.68347 6.68347 6.68347 6.68347 6.68347 6.68347 6.68347 6.68347 6.68347 6.68347 6.68347 6.68347 6.68347 6.68347 6.68347 6.68347 6.68347 6.68347 6.68347 6.68347 6.68347 6.68347 6.68347 6.68347 6.68347 6.68347 6.68347 6.68347 6.68347 6.68347 6.68347 6.68347 6.68347 6.68347 6.68347 6.68347 6.68347 6.68347 6.68347 6.68347 6.68347 6.68347 6.68347 6.68347 6.68347 6.68347 6.68347 6.68347 6.68347 6.68347 6.68347 6.68347 6.68347 6.68347 6.68347 6.68347 6.68347 6.68314 6.68465 6.68415 6.68465 6.68506 6.68431 6.6845 6.68448 6.68466 6.68467 6.68468 6.6845 6.68433 6.68432 6.6845 6.68432 6.68414 6.68483 6.68504 6.68541 6.68347 6.68347 6.68347 6.68347 6.68347 6.68347 6.68347 6.68347 6.68347 6.68347 6.68347 6.68347 6.68347 6.68347 6.68347 6.68347 6.68347 6.68347 6.68347 6.68347 6.68347 6.68347 6.68347 6.68347 6.68347 6.68347 6.68347 6.68347 6.68347 6.68347 6.68347 6.68347 6.68347 6.68347 6.68468 6.68347 6.68347 6.68347 6.68347 6.68347 6.68347 6.68347 6.68347 6.68347 6.68347 6.68347 6.68347 6.68347 6.68347 6.68347 6.68347 6.68347 6.68347 6.68347 6.68347 6.68347 6.68347 6.68347 6.68347 6.68347 6.68347 6.68347 6.68347 6.68347 6.68347 6.68347 6.68347 6.68347 6.68347 6.68347 6.68347 6.68347 6.68347 6.68347 6.68347 6.68347 6.68347 6.68347 6.68347 6.68347 6.68347 6.68347 6.68347 6.68347 6.68347 6.68347 6.68347 6.68347 6.68347 6.68347 6.68347 6.68347 6.68347 6.68347
8.18375 8.11247 8.06082 8.06083 8.0609 8.06073 8.06503 8.05889 8.05251 8.04723 8.03998 8.03578 8.02957 8.0316 8.03579 8.03005 8.03359 8.04453 8.05452 8.08098 8.09534 8.19445 8.24179 8.72369 9.04905 9.57014 10.056 9.27934 8.18314 7.86102 7.87034 7.6625 7.65447 7.58339 7.42954 8.42656 7.93803 7.99217 8.39438 8.38616 7.13777 7.02092 6.97624 6.92533 6.9103 6.95549 6.97261 6.92459 6.85055 6.82245 6.77743 6.76583 6.75724 6.74868 6.74316 6.75417 6.73706 6.74101 6.74427 6.76209 6.78758 6.74455 6.7362 6.75208 6.73529 6.72639 6.71915 6.7145 6.71357 6.71356 6.71267 6.71202 6.71096 6.71037 6.71055 6.71037 6.70941 6.70922 6.70905 6.70833 6.70833 6.70833 6.70833 6.70833 6.70833 6.70833 6.70833 6.70833 6.70833 6.70833 6.70833 6.70833 6.70833 6.70833 6.70833 6.70833 6.70833 6.70833 6.70833 6.70833 6.70833 6.70833 6.70833 6.70833 6.70833 6.70833 6.70833 6.70833 6.70833 6.70833 6.70833 6.70833 6.70833 6.70833 6.70833 6.70833 6.70833 6.70833 6.70833 6.70833 6.70833 6.70833 6.70833 6.70833 6.70833 6.70833 6.70833 6.70833 6.70833 6.70833 6.70833 6.70833 6.70833 6.70833 6.70833 6.70833 6.70833 6.70833 6.70833 6.70833 6.70833 6.70833 6.70833 6.70833 6.70833 6.70833 6.70833 6.70833 6.70833 6.70833 6.70833 6.70833 6.70833 6.70833 6.70833 6.70833 6.70833 6.70833 6.70833 6.70833 6.70833 6.70833 6.70833 6.70833 6.70833 6.70833 6.70833 6.70833 6.70833 6.70833 6.70833 6.70833 6.70833 6.70833 6.70833 6.70833 6.70833 6.70833 6.70833 6.70833 6.70833 6.70833 6.70833 6.70833 6.70833 6.70833 6.70833 6.70833 6.70833 6.70833 6.70833 6.70833 6.70833 6.70833 6.70833 6.70833 6.70833 6.70833 6.70833 6.70833 6.70833 6.70833 6.70833 6.70833 6.70833 6.70833 6.70833 6.70833 6.70833 6.70833 6.70833 6.70833 6.70833 6.70833 6.70833 6.70833 6.70833 6.70833 6.70833 6.70833 6.70833 6.70833 6.70833 6.70833 6.70833 6.70833 6.70833 6.70833 6.70833 6.70833 6.70833 6.70833 6.70833 6.70833 6.70833 6.70833 6.70833 6.70833 6.70833 6.70833 6.70833 6.70833 6.70833 6.70833 6.70833 6.70833 6.70833 6.70833 6.70833 6.70833 6.70833 6.70833 6.70833 6.70833 6.70833 6.70833 6.70833 6.70833 6.70833 6.70833 6.70833 6.70833 6.70833 6.70833 6.70833 6.70833 6.70833 6.70923 6.70939 6.70868 6.70961 6.70979 6.70978 6.70923 6.70923 6.70922 6.70923 6.70923 6.70904 6.7094 6.70975 6.7098 6.70998 6.70833 6.70833 6.70833 6.70833 6.70833 6.70833 6.70833 6.70833 6.70833 6.70833 6.70833 6.70833 6.70833 6.70833 6.70833 6.70833 6.70833 6.70833 6.70833 6.70833 6.70833 6.70833 6.70833 6.70833 6.70833 6.70833 6.70833 6.70833 6.70833 6.70833 6.70833 6.70833 6.70833 6.70833 6.70833 6.70979 6.70833 6.70833 6.70833 6.70833 6.70833 6.70833 6.70833 6.70833 6.70833 6.70833 6.70833 6.70833 6.70833 6.70833 6.70833 6.70833 6.70833 6.70833 6.70833 6.70833 6.70833 6.70833 6.70833 6.70833 6.70833 6.70833 6.70833 6.70833 6.70833 6.70833 6.70833 6.70833 6.70833 6.70833 6.70833 6.70833 6.70833 6.70833 6.70833 6.70833 6.70833 6.70833 6.70833 6.70833 6.70833 6.70833 6.70833 6.70833 6.70833 6.70833 6.70833 6.70833 6.70833 6.70833 6.70833 6.70833 6.70833 6.70833 6.70833
8.34879 8.1559 8.09836 8.09819 8.10666 8.10247 8.10445 8.09184 8.08562 8.07919 8.07316 8.06465 8.06052 8.06046 8.05451 8.0646 8.06253 8.07665 8.09535 8.11675 8.12131 8.13804 8.16395 8.24333 8.35799 8.91376 9.56298 9.12145 8.20716 7.91547 8.25019 7.83717 7.81772 7.74516 8.34985 8.0925 7.57116 7.49005 7.33098 7.23239 7.14148 7.06689 7.01381 6.96636 6.91297 6.89393 6.89327 6.96867 6.86877 6.81301 6.80274 6.79589 6.79676 6.79276 6.77445 6.7863 6.76975 6.77355 6.78123 6.79315 6.80544 6.77843 6.77921 6.78578 6.76533 6.75331 6.74574 6.74108 6.7389 6.73822 6.73753 6.73732 6.73625 6.73583 6.73561 6.73464 6.73484 6.73445 6.73428 6.7337 6.7337 6.7337 6.7337 6.7337 6.7337 6.7337 6.7337 6.7337 6.7337 6.7337 6.7337 6.7337 6.7337 6.7337 6.7337 6.7337 6.7337 6.7337 6.7337 6.7337 6.7337 6.7337 6.7337 6.7337 6.7337 6.7337 6.7337 6.7337 6.7337 6.7337 6.7337 6.7337 6.7337 6.7337 6.7337 6.7337 6.7337 6.7337 6.7337 6.7337 6.7337 6.7337 6.7337 6.7337 6.7337 6.7337 6.7337 6.7337 6.7337 6.7337 6.7337 6.7337 6.7337 6.7337 6.7337 6.7337 6.7337 6.7337 6.7337 6.7337 6.7337 6.7337 6.7337 6.7337 6.7337 6.7337 6.7337 6.7337 6.7337 6.7337 6.7337 6.7337 6.7337 6.7337 6.7337 6.7337 6.7337 6.7337 6.7337 6.7337 6.7337 6.7337 6.7337 6.7337 6.7337 6.7337 6.7337 6.7337 6.7337 6.7337 6.7337 6.7337 6.7337 6.7337 6.7337 6.7337 6.7337 6.7337 6.7337 6.7337 6.7337 6.7337 6.7337 6.7337 6.7337 6.7337 6.7337 6.7337 6.7337 6.7337 6.7337 6.7337 6.7337 6.7337 6.7337 6.7337 6.7337 6.7337 6.7337 6.7337 6.7337 6.7337 6.7337 6.7337 6.7337 6.7337 6.7337 6.7337 6.7337 6.7337 6.7337 6.7337 6.7337 6.7337 6.7337 6.7337 6.7337 6.7337 6.7337 6.7337 6.7337 6.7337 6.7337 6.7337 6.7337 6.7337 6.7337 6.7337 6.7337 6.7337 6.7337 6.7337 6.7337 6.7337 6.7337 6.7337 6.7337 6.7337 6.7337 6.7337 6.7337 6.7337 6.7337 6.7337 6.7337 6.7337 6.7337 6.7337 6.7337 6.7337 6.7337 6.7337 6.7337 6.7337 6.7337 6.7337 6.7337 6.7337 6.7337 6.7337 6.7337 6.7337 6.7337 6.7337 6.7337 6.7337 6.7337 6.7337 6.7337 6.73388 6.73423 6.73465 6.73486 6.73444 6.73463 6.73463 6.73444 6.73444 6.73444 6.7348 6.73501 6.73524 6.73541 6.7337 6.7337 6.7337 6.7337 6.7337 6.7337 6.7337 6.7337 6.7337 6.7337 6.7337 6.7337 6.7337 6.7337 6.7337 6.7337 6.7337 6.7337 6.7337 6.7337 6.7337 6.7337 6.7337 6.7337 6.7337 6.7337 6.7337 6.7337 6.7337 6.7337 6.7337 6.7337 6.7337 6.7337 6.7337 6.7337 6.7337 6.7337 6.7337 6.7337 6.7337 6.7337 6.7337 6.7337 6.7337 6.7337 6.7337 6.7337 6.7337 6.7337 6.7337 6.7337 6.7337 6.7337 6.7337 6.7337 6.7337 6.7337 6.7337 6.7337 6.7337 6.7337 6.7337 6.7337 6.7337 6.7337 6.7337 6.7337 6.7337 6.7337 6.7337 6.7337 6.7337 6.7337 6.7337 6.7337 6.7337 6.7337 6.7337 6.7337 6.7337 6.7337 6.7337 6.7337 6.7337 6.7337 6.7337 6.7337 6.7337 6.7337 6.7337 6.7337 6.7337 6.7337 6.7337
9.00975 8.36384 8.14398 8.14586 8.14796 8.15057 8.13644 8.14946 8.12722 8.11886 8.10822 8.10191 8.09564 8.09357 8.09541 8.09921 8.11383 8.16221 8.19815 8.21159 8.20329 8.21799 8.23739 8.27461 8.2452 8.25604 8.43346 8.7014 8.14522 8.25611 8.75483 8.11602 8.07539 8.20654 8.53113 8.81987 7.94732 8.36662 7.6227 7.8883 7.35402 7.13566 7.07673 7.006 6.95048 6.92204 6.89878 6.8866 7.13646 6.84828 6.83562 6.84035 6.83391 6.81599 6.80859 6.82573 6.81194 6.81112 6.81982 6.83858 6.89319 6.82297 6.80261 6.79408 6.79673 6.78666 6.7768 6.7711 6.76755 6.76684 6.76638 6.76614 6.76549 6.76465 6.76443 6.76403 6.76402 6.76383 6.76361 6.76285 6.76285 6.76285 6.76285 6.76285 6.76285 6.76285 6.76285 6.76285 6.76285 6.76285 6.76285 6.76285 6.76285 6.76285 6.76285 6.76285 6.76285 6.76285 6.76285 6.76285 6.76285 6.76285 6.76285 6.76285 6.76285 6.76285 6.76285 6.76285 6.76285 6.76285 6.76285 6.76285 6.76285 6.76285 6.76285 6.76285 6.76285 6.76285 6.76285 6.76285 6.76285 6.76285 6.76285 6.76285 6.76285 6.76285 6.76285 6.76285 6.76285 6.76285 6.76285 6.76285 6.76285 6.76285 6.76285 6.76285 6.76285 6.76285 6.76285 6.76285 6.76285 6.76285 6.76285 6.76285 6.76285 6.76285 6.76285 6.76285 6.76285 6.76285 6.76285 6.76285 6.76285 6.76285 6.76285 6.76285 6.76285 6.76285 6.76285 6.76285 6.76285 6.76285 6.76285 6.76285 6.76285 6.76285 6.76285 6.76285 6.76285 6.76285 6.76285 6.76285 6.76285 6.76285 6.76285 6.76285 6.76285 6.76285 6.76285 6.76285 6.76285 6.76285 6.76285 6.76285 6.76285 6.76285 6.76285 6.76285 6.76285 6.76285 6.76285 6.76285 6.76285 6.76285 6.76285 6.76285 6.76285 6.76285 6.76285 6.76285 6.76285 6.76285 6.76285 6.76285 6.76285 6.76285 6.76285 6.76285 6.76285 6.76285 6.76285 6.76285 6.76285 6.76285 6.76285 6.76285 6.76285 6.76285 6.76285 6.76285 6.76285 6.76285 6.76285 6.76285 6.76285 6.76285 6.76285 6.76285 6.76285 6.76285 6.76285 6.76285 6.76285 6.76285 6.76285 6.76285 6.76285 6.76285 6.76285 6.76285 6.76285 6.76285 6.76285 6.76285 6.76285 6.76285 6.76285 6.76285 6.76285 6.76285 6.76285 6.76285 6.76285 6.76285 6.76285 6.76285 6.76285 6.76285 6.76285 6.76285 6.76285 6.76285 6.76285 6.76285 6.76285 6.76285 6.76285 6.76285 6.76285 6.76285 6.76262 6.76342 6.76361 6.76343 6.76363 6.76362 6.76362 6.76381 6.76382 6.76422 6.76443 6.76504 6.76285 6.76285 6.76285 6.76285 6.76285 6.76285 6.76285 6.76285 6.76285 6.76285 6.76285 6.76285 6.76285 6.76285 6.76285 6.76285 6.76285 6.76285 6.76285 6.76285 6.76285 6.76285 6.76285 6.76285 6.76285 6.76285 6.76285 6.76285 6.76285 6.76285 6.76285 6.76285 6.76285 6.76285 6.76285 6.76285 6.76285 6.76285 6.76285 6.76285 6.76285 6.76285 6.76285 6.76285 6.76285 6.76285 6.76285 6.76285 6.76285 6.76285 6.76285 6.76285 6.76285 6.76285 6.76285 6.76285 6.76285 6.76285 6.76285 6.76285 6.76285 6.76285 6.76285 6.76285 6.76285 6.76285 6.76285 6.76285 6.76285 6.76285 6.76285 6.76285 6.76285 6.76285 6.76285 6.76285 6.76285 6.76285 6.76285 6.76285 6.76285 6.76285 6.76285 6.76285 6.76285 6.76285 6.76285 6.76285 6.76285 6.76285 6.76285 6.76285 6.76285 6.76285 6.76285 6.76285
8.57194 8.80043 8.19482 8.19495 8.1928 8.17605 8.45758 8.27218 8.1623 8.14649 8.14106 8.13383 8.12553 8.14746 8.20613 8.25875 8.33116 8.29974 8.32418 8.3721 8.35503 8.34359 8.3712 8.40757 8.31858 8.24993 8.22483 8.21051 8.19708 8.30732 9.09032 8.50301 8.37087 8.47125 8.84355 8.4555 9.15426 12.0389 9.17262 7.70761 7.69008 7.26559 7.76515 7.06921 7.004 6.95836 6.93257 6.90663 6.89182 6.88638 6.8732 6.87506 6.85818 6.84438 6.84346 6.86752 6.84385 6.83672 6.84099 6.85288 6.87662 6.85576 6.83232 6.82735 6.81738 6.809 6.80401 6.79916 6.79567 6.79319 6.79295 6.79204 6.79182 6.79137 6.79052 6.78989 6.79006 6.7899 6.78969 6.78929 6.78929 6.78929 6.78929 6.78929 6.78929 6.78929 6.78929 6.78929 6.78929 6.78929 6.78929 6.78929 6.78929 6.78929 6.78929 6.78929 6.78929 6.78929 6.78929 6.78929 6.78929 6.78929 6.78929 6.78929 6.78929 6.78929 6.78929 6.78929 6.78929 6.78929 6.78929 6.78929 6.78929 6.78929 6.78929 6.78929 6.78929 6.78929 6.78929 6.78929 6.78929 6.78929 6.78929 6.78929 6.78929 6.78929 6.78929 6.78929 6.78929 6.78929 6.78929 6.78929 6.78929 6.78929 6.78929 6.78929 6.78929 6.78929 6.78929 6.78929 6.78929 6.78929 6.78929 6.78929 6.78929 6.78929 6.78929 6.78929 6.78929 6.78929 6.78929 6.78929 6.78929 6.78929 6.78929 6.78929 6.78929 6.78929 6.78929 6.78929 6.78929 6.78929 6.78929 6.78929 6.78929 6.78929 6.78929 6.78929 6.78929 6.78929 6.78929 6.78929 6.78929 6.78929 6.78929 6.78929 6.78929 6.78929 6.78929 6.78929 6.78929 6.78929 6.78929 6.78929 6.78929 6.78929 6.78929 6.78929 6.78929 6.78929 6.78929 6.78929 6.78929 6.78929 6.78929 6.78929 6.78929 6.78929 6.78929 6.78929 6.78929 6.78929 6.78929 6.78929 6.78929 6.78929 6.78929 6.78929 6.78929 6.78929 6.78929 6.78929 6.78929 6.78929 6.78929 6.78929 6.78929 6.78929 6.78929 6.78929 6.78929 6.78929 6.78929 6.78929 6.78929 6.78929 6.78929 6.78929 6.78929 6.78929 6.78929 6.78929 6.78929 6.78929 6.78929 6.78929 6.78929 6.78929 6.78929 6.78929 6.78929 6.78929 6.78929 6.78929 6.78929 6.78929 6.78929 6.78929 6.78929 6.78929 6.78929 6.78929 6.78929 6.78929 6.78929 6.78929 6.78929 6.78929 6.78929 6.78929 6.78929 6.78929 6.78929 6.78929 6.78929 6.78929 6.78929 6.78929 6.78929 6.78929 6.7901 6.78929 6.78969 6.78969 6.78989 6.79009 6.79031 6.79009 6.79051 6.79072 6.79093 6.79072 6.78929 6.78929 6.78929 6.78929 6.78929 6.78929 6.78929 6.78929 6.78929 6.78929 6.78929 6.78929 6.78929 6.78929 6.78929 6.78929 6.78929 6.78929 6.78929 6.78929 6.78929 6.78929 6.78929 6.78929 6.78929 6.78929 6.78929 6.78929 6.78929 6.78929 6.78929 6.78929 6.78929 6.78929 6.78929 6.78929 6.78929 6.78929 6.78929 6.78929 6.78929 6.78929 6.78929 6.78929 6.78929 6.78929 6.78929 6.78929 6.78929 6.78929 6.78929 6.78929 6.78929 6.78929 6.78929 6.78929 6.78929 6.78929 6.78929 6.78929 6.78929 6.78929 6.78929 6.78929 6.78929 6.78929 6.78929 6.78929 6.78929 6.78929 6.78929 6.78929 6.78929 6.78929 6.78929 6.78929 6.78929 6.78929 6.78929 6.78929 6.78929 6.78929 6.78929 6.78929 6.78929 6.78929 6.78929 6.78929 6.78929 6.78929 6.78929 6.78929 6.78929 6.78929 6.78929 6.78929
8.38392 8.46906 8.26036 8.24138 8.22334 8.21274 8.204 8.20921 8.20876 8.17467 8.37174 9.37796 8.56967 8.35193 8.38761 8.52792 8.73458 9.02893 8.67177 8.60668 8.89673 8.74676 8.56089 8.64626 8.59849 8.72863 8.87275 8.44754 8.40412 8.63404 9.8029 10.2731 9.15513 8.86239 8.81189 9.30644 10.0607 10.9937 11.6142 10.2132 8.33328 8.8891 7.32275 7.138 7.03093 6.97755 6.95444 6.94401 6.92982 6.91252 6.91539 6.89604 6.8824 6.88942 6.88551 6.90167 6.87122 6.85785 6.86136 6.86767 6.86414 6.87254 6.86557 6.87945 6.85748 6.83912 6.83015 6.82645 6.82284 6.82053 6.81932 6.81864 6.81819 6.81818 6.81708 6.81732 6.81708 6.81707 6.81625 6.81625 6.81625 6.81625 6.81625 6.81625 6.81625 6.81625 6.81625 6.81625 6.81625 6.81625 6.81625 6.81625 6.81625 6.81625 6.81625 6.81625 6.81625 6.81625 6.81625 6.81625 6.81625 6.81625 6.81625 6.81625 6.81625 6.81625 6.81625 6.81625 6.81625 6.81625 6.81625 6.81625 6.81625 6.81625 6.81625 6.81625 6.81625 6.81625 6.81625 6.81625 6.81625 6.81625 6.81625 6.81625 6.81625 6.81625 6.81625 6.81625 6.81625 6.81625 6.81625 6.81625 6.81625 6.81625 6.81625 6.81625 6.81625 6.81625 6.81625 6.81625 6.81625 6.81625 6.81625 6.81625 6.81625 6.81625 6.81625 6.81625 6.81625 6.81625 6.81625 6.81625 6.81625 6.81625 6.81625 6.81625 6.81625 6.81625 6.81625 6.81625 6.81625 6.81625 6.81625 6.81625 6.81625 6.81625 6.81625 6.81625 6.81625 6.81625 6.81625 6.81625 6.81625 6.81625 6.81625 6.81625 6.81625 6.81625 6.81625 6.81625 6.81625 6.81625 6.81625 6.81625 6.81625 6.81625 6.81625 6.81625 6.81625 6.81625 6.81625 6.81625 6.81625 6.81625 6.81625 6.81625 6.81625 6.81625 6.81625 6.81625 6.81625 6.81625 6.81625 6.81625 6.81625 6.81625 6.81625 6.81625 6.81625 6.81625 6.81625 6.81625 6.81625 6.81625 6.81625 6.81625 6.81625 6.81625 6.81625 6.81625 6.81625 6.81625 6.81625 6.81625 6.81625 6.81625 6.81625 6.81625 6.81625 6.81625 6.81625 6.81625 6.81625 6.81625 6.81625 6.81625 6.81625 6.81625 6.81625 6.81625 6.81625 6.81625 6.81625 6.81625 6.81625 6.81625 6.81625 6.81625 6.81625 6.81625 6.81625 6.81625 6.81625 6.81625 6.81625 6.81625 6.81625 6.81625 6.81625 6.81625 6.81625 6.81625 6.81625 6.81625 6.81625 6.81625 6.81625 6.81625 6.81625 6.81625 6.81625 6.8171 6.81608 6.81667 6.81709 6.81688 6.81708 6.81707 6.81774 6.81773 6.81775 6.81625 6.81625 6.81625 6.81625 6.81625 6.81625 6.81625 6.81625 6.81625 6.81625 6.81625 6.81625 6.81625 6.81625 6.81625 6.81625 6.81625 6.81625 6.81625 6.81625 6.81625 6.81625 6.81625 6.81625 6.81625 6.81625 6.81625 6.81625 6.81625 6.81625 6.81625 6.81625 6.81625 6.81625 6.81625 6.81625 6.81625 6.81625 6.81625 6.81625 6.81625 6.81625 6.81625 6.81795 6.81625 6.81625 6.81625 6.81625 6.81625 6.81625 6.81625 6.81625 6.81625 6.81625 6.81625 6.81625 6.81625 6.81625 6.81625 6.81625 6.81625 6.81625 6.81625 6.81625 6.81625 6.81625 6.81625 6.81625 6.81625 6.81625 6.81625 6.81625 6.81625 6.81625 6.81625 6.81625 6.81625 6.81625 6.81625 6.81625 6.81625 6.81625 6.81625 6.81625 6.81625 6.81625 6.81625 6.81625 6.81625 6.81625 6.81625 6.81625 6.81625 6.81625 6.81625 6.81625 6.81625
8.34679 8.48861 8.50212 8.58332 8.45094 8.28094 8.25777 8.23661 8.22599 8.21571 8.20513 8.22187 8.19241 8.43715 8.8844 10.5403 11.4515 10.0521 9.02152 9.1174 9.18062 9.48973 9.46592 8.90902 8.9192 8.91837 8.71569 8.7138 8.65076 9.25478 9.4945 9.54679 9.31293 9.12389 9.35121 10.5385 11.2267 11.2079 13.4101 10.8931 10.9026 8.75868 7.43028 7.66513 7.07562 7.02239 7.02053 6.96901 6.96956 6.95704 6.93118 6.92508 6.92847 6.94161 6.91709 6.91561 6.90536 6.88883 6.88245 6.88067 6.89277 6.88862 6.89757 6.92242 6.89349 6.87421 6.86283 6.85627 6.85375 6.85163 6.85062 6.84897 6.84874 6.84873 6.84718 6.84806 6.84764 6.84724 6.84718 6.84718 6.84718 6.84718 6.84718 6.84718 6.84718 6.84718 6.84718 6.84718 6.84718 6.84718 6.84718 6.84718 6.84718 6.84718 6.84718 6.84718 6.84718 6.84718 6.84718 6.84718 6.84718 6.84718 6.84718 6.84718 6.84718 6.84718 6.84718 6.84718 6.84718 6.84718 6.84718 6.84718 6.84718 6.84718 6.84718 6.84718 6.84718 6.84718 6.84718 6.84718 6.84718 6.84718 6.84718 6.84718 6.84718 6.84718 6.84718 6.84718 6.84718 6.84718 6.84718 6.84718 6.84718 6.84718 6.84718 6.84718 6.84718 6.84718 6.84718 6.84718 6.84718 6.84718 6.84718 6.84718 6.84718 6.84718 6.84718 6.84718 6.84718 6.84718 6.84718 6.84718 6.84718 6.84718 6.84718 6.84718 6.84718 6.84718 6.84718 6.84718 6.84718 6.84718 6.84718 6.84718 6.84718 6.84718 6.84718 6.84718 6.84718 6.84718 6.84718 6.84718 6.84718 6.84718 6.84718 6.84718 6.84718 6.84718 6.84718 6.84718 6.84718 6.84718 6.84718 6.84718 6.84718 6.84718 6.84718 6.84718 6.84718 6.84718 6.84718 6.84718 6.84718 6.84718 6.84718 6.84718 6.84718 6.84718 6.84718 6.84718 6.84718 6.84718 6.84718 6.84718 6.84718 6.84718 6.84718 6.84718 6.84718 6.84718 6.84718 6.84718 6.84718 6.84718 6.84718 6.84718 6.84718 6.84718 6.84718 6.84718 6.84718 6.84718 6.84718 6.84718 6.84718 6.84718 6.84718 6.84718 6.84718 6.84718 6.84718 6.84718 6.84718 6.84718 6.84718 6.84718 6.84718 6.84718 6.84718 6.84718 6.84718 6.84718 6.84718 6.84718 6.84718 6.84718 6.84718 6.84718 6.84718 6.84718 6.84718 6.84718 6.84718 6.84718 6.84718 6.84718 6.84718 6.84718 6.84718 6.84718 6.84718 6.84718 6.84718 6.84718 6.84718 6.84718 6.84718 6.84718 6.84718 6.84718 6.84718 6.84873 6.84805 6.84785 6.84783 6.84783 6.84783 6.84806 6.84827 6.84852 6.84848 6.84718 6.84718 6.84718 6.84718 6.84718 6.84718 6.84718 6.84718 6.84718 6.84718 6.84718 6.84718 6.84718 6.84718 6.84718 6.84718 6.84718 6.84718 6.84718 6.84718 6.84718 6.84718 6.84718 6.84718 6.84718 6.84718 6.84718 6.84718 6.84718 6.84718 6.84718 6.84718 6.84718 6.84718 6.84718 6.84718 6.84718 6.84718 6.84718 6.84718 6.84718 6.84718 6.84718 6.84896 6.84718 6.84718 6.84718 6.84718 6.84718 6.84718 6.84718 6.84718 6.84718 6.84718 6.84718 6.84718 6.84718 6.84718 6.84718 6.84718 6.84718 6.84718 6.84718 6.84718 6.84718 6.84718 6.84718 6.84718 6.84718 6.84718 6.84718 6.84718 6.84718 6.84718 6.84718 6.84718 6.84718 6.84718 6.84718 6.84718 6.84718 6.84718 6.84718 6.84718 6.84718 6.84718 6.84718 6.84718 6.84718 6.84718 6.84718 6.84718 6.84718 6.84718 6.84718 6.84718 6.84718
9.09008 8.563 9.54318 8.42553 8.45527 8.34897 8.4397 8.27443 8.24898 8.24465 8.23626 8.2279 8.22588 8.22778 8.38891 8.94151 9.47768 11.0899 10.1625 9.96742 9.81123 9.7547 9.69121 9.38864 9.2714 9.27341 9.16503 9.0737 9.20851 9.53098 10.2137 10.6716 9.71683 9.86406 11.6812 10.6457 11.2575 11.2515 12.3704 11.758 10.3688 9.87169 9.37961 7.25311 7.58706 7.08635 7.07704 7.0116 7.02306 7.00283 6.98113 6.9866 6.96324 6.96507 6.94249 6.92914 6.92116 6.91578 6.91118 6.90853 6.90603 6.92321 6.91652 6.94603 6.91864 6.90837 6.89231 6.8855 6.88091 6.87931 6.87829 6.87778 6.8753 6.87592 6.87549 6.87523 6.87567 6.87523 6.87523 6.87523 6.87523 6.87523 6.87523 6.87523 6.87523 6.87523 6.87523 6.87523 6.87523 6.87523 6.87523 6.87523 6.87523 6.87523 6.87523 6.87523 6.87523 6.87523 6.87523 6.87523 6.87523 6.87523 6.87523 6.87523 6.87523 6.87523 6.87523 6.87523 6.87523 6.87523 6.87523 6.87523 6.87523 6.87523 6.87523 6.87523 6.87523 6.87523 6.87523 6.87523 6.87523 6.87523 6.87523 6.87523 6.87523 6.87523 6.87523 6.87523 6.87523 6.87523 6.87523 6.87523 6.87523 6.87523 6.87523 6.87523 6.87523 6.87523 6.87523 6.87523 6.87523 6.87523 6.87523 6.87523 6.87523 6.87523 6.87523 6.87523 6.87523 6.87523 6.87523 6.87523 6.87523 6.87523 6.87523 6.87523 6.87523 6.87523 6.87523 6.87523 6.87523 6.87523 6.87523 6.87523 6.87523 6.87523 6.87523 6.87523 6.87523 6.87523 6.87523 6.87523 6.87523 6.87523 6.87523 6.87523 6.87523 6.87523 6.87523 6.87523 6.87523 6.87523 6.87523 6.87523 6.87523 6.87523 6.87523 6.87523 6.87523 6.87523 6.87523 6.87523 6.87523 6.87523 6.87523 6.87523 6.87523 6.87523 6.87523 6.87523 6.87523 6.87523 6.87523 6.87523 6.87523 6.87523 6.87523 6.87523 6.87523 6.87523 6.87523 6.87523 6.87523 6.87523 6.87523 6.87523 6.87523 6.87523 6.87523 6.87523 6.87523 6.87523 6.87523 6.87523 6.87523 6.87523 6.87523 6.87523 6.87523 6.87523 6.87523 6.87523 6.87523 6.87523 6.87523 6.87523 6.87523 6.87523 6.87523 6.87523 6.87523 6.87523 6.87523 6.87523 6.87523 6.87523 6.87523 6.87523 6.87523 6.87523 6.87523 6.87523 6.87523 6.87523 6.87523 6.87523 6.87523 6.87523 6.87523 6.87523 6.87523 6.87523 6.87523 6.87523 6.87523 6.87523 6.87523 6.87523 6.87523 6.87523 6.87523 6.87523 6.87683 6.87589 6.87591 6.87568 6.87682 6.87685 6.8766 6.87615 6.87591 6.87523 6.87523 6.87523 6.87523 6.87523 6.87523 6.87523 6.87523 6.87523 6.87523 6.87523 6.87523 6.87523 6.87523 6.87523 6.87523 6.87523 6.87523 6.87523 6.87523 6.87523 6.87523 6.87523 6.87523 6.87523 6.87523 6.87523 6.87523 6.87523 6.87523 6.87523 6.87523 6.87523 6.87523 6.87523 6.87523 6.87523 6.87523 6.87523 6.87523 6.87523 6.87523 6.87523 6.87523 6.87523 6.87755 6.87523 6.87523 6.87523 6.87523 6.87523 6.87523 6.87523 6.87523 6.87523 6.87523 6.87523 6.87523 6.87523 6.87523 6.87523 6.87523 6.87523 6.87523 6.87523 6.87523 6.87523 6.87523 6.87523 6.87523 6.87523 6.87523 6.87523 6.87523 6.87523 6.87523 6.87523 6.87523 6.87523 6.87523 6.87523 6.87523 6.87523 6.87523 6.87523 6.87523 6.87523 6.87523 6.87523 6.87523 6.87523 6.87523 6.87523 6.87523 6.87523 6.87523 6.87523
8.76367 8.99341 9.15051 8.69012 8.81029 9.12865 8.35777 8.39345 8.55629 8.73162 8.6718 8.37424 8.25931 8.27514 8.28031 8.72223 8.64429 8.57052 9.05004 9.86678 10.1962 11.0917 10.7435 10.2871 10.4342 9.95723 9.73378 9.57889 9.68546 9.82293 10.122 10.4872 10.963 11.6524 11.6986 10.8165 10.702 10.7573 12.4174 11.7942 10.4805 10.9497 10.0979 7.92573 7.24283 7.16986 7.13774 7.09709 7.08211 7.05118 7.03246 7.02047 7.03674 6.99011 6.96749 6.95899 6.95597 6.94984 6.94758 6.94792 6.93625 6.94166 6.96522 7.02208 6.97345 6.94275 6.92388 6.91502 6.90802 6.90697 6.90857 6.90577 6.90452 6.9038 6.9045 6.9038 6.90335 6.9038 6.9038 6.9038 6.9038 6.9038 6.9038 6.9038 6.9038 6.9038 6.9038 6.9038 6.9038 6.9038 6.9038 6.9038 6.9038 6.9038 6.9038 6.9038 6.9038 6.9038 6.9038 6.9038 6.9038 6.9038 6.9038 6.9038 6.9038 6.9038 6.9038 6.9038 6.9038 6.9038 6.9038 6.9038 6.9038 6.9038 6.9038 6.9038 6.9038 6.9038 6.9038 6.9038 6.9038 6.9038 6.9038 6.9038 6.9038 6.9038 6.9038 6.9038 6.9038 6.9038 6.9038 6.9038 6.9038 6.9038 6.9038 6.9038 6.9038 6.9038 6.9038 6.9038 6.9038 6.9038 6.9038 6.9038 6.9038 6.9038 6.9038 6.9038 6.9038 6.9038 6.9038 6.9038 6.9038 6.9038 6.9038 6.9038 6.9038 6.9038 6.9038 6.9038 6.9038 6.9038 6.9038 6.9038 6.9038 6.9038 6.9038 6.9038 6.9038 6.9038 6.9038 6.9038 6.9038 6.9038 6.9038 6.9038 6.9038 6.9038 6.9038 6.9038 6.9038 6.9038 6.9038 6.9038 6.9038 6.9038 6.9038 6.9038 6.9038 6.9038 6.9038 6.9038 6.9038 6.9038 6.9038 6.9038 6.9038 6.9038 6.9038 6.9038 6.9038 6.9038 6.9038 6.9038 6.9038 6.9038 6.9038 6.9038 6.9038 6.9038 6.9038 6.9038 6.9038 6.9038 6.9038 6.9038 6.9038 6.9038 6.9038 6.9038 6.9038 6.9038 6.9038 6.9038 6.9038 6.9038 6.9038 6.9038 6.9038 6.9038 6.9038 6.9038 6.9038 6.9038 6.9038 6.9038 6.9038 6.9038 6.9038 6.9038 6.9038 6.9038 6.9038 6.9038 6.9038 6.9038 6.9038 6.9038 6.9038 6.9038 6.9038 6.9038 6.9038 6.9038 6.9038 6.9038 6.9038 6.9038 6.9038 6.9038 6.9038 6.9038 6.9038 6.9038 6.9038 6.9038 6.9038 6.9038 6.9038 6.9038 6.9038 6.9038 6.9038 6.9038 6.90449 6.90472 6.90474 6.90498 6.90472 6.90474 6.9038 6.90473 6.9038 6.9038 6.9038 6.9038 6.9038 6.9038 6.9038 6.9038 6.9038 6.9038 6.9038 6.9038 6.9038 6.9038 6.9038 6.9038 6.9038 6.9038 6.9038 6.9038 6.9038 6.9038 6.9038 6.9038 6.9038 6.9038 6.9038 6.9038 6.9038 6.9038 6.9038 6.9038 6.9038 6.9038 6.9038 6.9038 6.9038 6.9038 6.9038 6.9038 6.9038 6.9038 6.9038 6.9038 6.9038 6.9038 6.9038 6.9038 6.9038 6.9038 6.9038 6.9038 6.9038 6.9038 6.9038 6.9038 6.9038 6.9038 6.9038 6.9038 6.9038 6.9038 6.9038 6.9038 6.9038 6.9038 6.9038 6.9038 6.9038 6.9038 6.9038 6.9038 6.9038 6.9038 6.9038 6.9038 6.9038 6.9038 6.9038 6.9038 6.9038 6.9038 6.9038 6.9038 6.9038 6.9038 6.9038 6.9038 6.9038 6.9038 6.9038 6.9038 6.9038 6.9038 6.9038 6.9038
8.63807 8.7415 8.64576 8.81878 10.036 10.0996 8.9886 9.75374 9.02018 8.98532 8.88989 9.53417 9.10961 8.52739 8.88703 8.55526 8.42183 8.68475 8.58629 8.79291 9.16079 9.43254 9.94998 10.7729 10.656 10.8352 12.6772 12.3153 13.0714 10.7974 10.3491 10.2788 10.7177 11.3886 11.8489 10.7808 10.6114 10.9545 11.0114 12.6614 13.4597 13.9359 9.25808 9.34929 7.79794 7.2672 7.2429 7.18514 7.13998 7.0977 7.08696 7.06623 7.09806 7.03714 7.01218 7.00426 6.99416 6.99337 6.99541 6.99129 6.98883 6.96455 6.9921 7.03822 6.98427 6.9907 6.96265 6.94683 6.94177 6.93984 6.93856 6.93731 6.93706 6.93657 6.93657 6.93655 6.93657 6.93657 6.93657 6.93657 6.93657 6.93657 6.93657 6.93657 6.93657 6.93657 6.93657 6.93657 6.93657 6.93657 6.93657 6.93657 6.93657 6.93657 6.93657 6.93657 6.93657 6.93657 6.93657 6.93657 6.93657 6.93657 6.93657 6.93657 6.93657 6.93657 6.93657 6.93657 6.93657 6.93657 6.93657 6.93657 6.93657 6.93657 6.93657 6.93657 6.93657 6.93657 6.93657 6.93657 6.93657 6.93657 6.93657 6.93657 6.93657 6.93657 6.93657 6.93657 6.93657 6.93657 6.93657 6.93657 6.93657 6.93657 6.93657 6.93657 6.93657 6.93657 6.93657 6.93657 6.93657 6.93657 6.93657 6.93657 6.93657 6.93657 6.93657 6.93657 6.93657 6.93657 6.93657 6.93657 6.93657 6.93657 6.93657 6.93657 6.93657 6.93657 6.93657 6.93657 6.93657 6.93657 6.93657 6.93657 6.93657 6.93657 6.93657 6.93657 6.93657 6.93657 6.93657 6.93657 6.93657 6.93657 6.93657 6.93657 6.93657 6.93657 6.93657 6.93657 6.93657 6.93657 6.93657 6.93657 6.93657 6.93657 6.93657 6.93657 6.93657 6.93657 6.93657 6.93657 6.93657 6.93657 6.93657 6.93657 6.93657 6.93657 6.93657 6.93657 6.93657 6.93657 6.93657 6.93657 6.93657 6.93657 6.93657 6.93657 6.93657 6.93657 6.93657 6.93657 6.93657 6.93657 6.93657 6.93657 6.93657 6.93657 6.93657 6.93657 6.93657 6.93657 6.93657 6.93657 6.93657 6.93657 6.93657 6.93657 6.93657 6.93657 6.93657 6.93657 6.93657 6.93657 6.93657 6.93657 6.93657 6.93657 6.93657 6.93657 6.93657 6.93657 6.93657 6.93657 6.93657 6.93657 6.93657 6.93657 6.93657 6.93657 6.93657 6.93657 6.93657 6.93657 6.93657 6.93657 6.93657 6.93657 6.93657 6.93657 6.93657 6.93657 6.93657 6.93657 6.93657 6.93657 6.93657 6.93657 6.93657 6.93657 6.93657 6.93853 6.93704 6.93657 6.93702 6.93776 6.93777 6.93756 6.93657 6.93657 6.93657 6.93657 6.93657 6.93657 6.93657 6.93657 6.93657 6.93657 6.93657 6.93657 6.93657 6.93657 6.93657 6.93657 6.93657 6.93657 6.93657 6.93657 6.93657 6.93657 6.93657 6.93657 6.93657 6.93657 6.93657 6.93657 6.93657 6.93657 6.93657 6.93657 6.93657 6.93657 6.93657 6.93657 6.93657 6.93657 6.93657 6.93657 6.93657 6.93657 6.93657 6.93657 6.93657 6.93657 6.93657 6.93657 6.93657 6.93657 6.93657 6.93657 6.93657 6.93657 6.93657 6.93657 6.93657 6.93657 6.93657 6.93657 6.93657 6.93657 6.93657 6.93657 6.93657 6.93657 6.93657 6.93657 6.93657 6.93657 6.93657 6.93657 6.93657 6.93657 6.93657 6.93657 6.93657 6.93657 6.93657 6.93657 6.93657 6.93657 6.93657 6.93657 6.93657 6.93657 6.93657 6.93657 6.93657 6.93657 6.93657 6.93657 6.93657 6.93657 6.93657 6.93657 6.93657 6.93657 6.93657 6.93657
9.79673 9.46262 9.00316 8.97763 8.68717 9.85654 12.535 9.90522 9.6131 9.49971 9.28627 10.0133 10.1818 8.81006 9.14817 9.97242 8.75691 8.63791 9.39434 9.67331 8.90284 8.97902 9.40014 9.79254 10.3624 11.6404 11.8666 11.6196 12.0581 11.3811 12.2335 11.7014 10.9457 11.7282 10.5388 10.6199 10.6977 10.5411 11.7972 11.7815 11.2586 12.5852 10.3664 8.91027 9.34342 7.4198 7.30976 7.29853 7.29589 7.22972 7.14212 7.1475 7.13808 7.07181 7.07791 7.05061 7.02863 7.03612 7.02664 7.01329 6.99742 6.99759 7.00023 7.04242 7.00356 7.03357 6.99888 6.98012 6.97103 6.9683 6.96777 6.96724 6.96673 6.96625 6.96625 6.96625 6.96625 6.96625 6.96625 6.96625 6.96625 6.96625 6.96625 6.96625 6.96625 6.96625 6.96625 6.96625 6.96625 6.96625 6.96625 6.96625 6.96625 6.96625 6.96625 6.96625 6.96625 6.96625 6.96625 6.96625 6.96625 6.96625 6.96625 6.96625 6.96625 6.96625 6.96625 6.96625 6.96625 6.96625 6.96625 6.96625 6.96625 6.96625 6.96625 6.96625 6.96625 6.96625 6.96625 6.96625 6.96625 6.96625 6.96625 6.96625 6.96625 6.96625 6.96625 6.96625 6.96625 6.96625 6.96625 6.96625 6.96625 6.96625 6.96625 6.96625 6.96625 6.96625 6.96625 6.96625 6.96625 6.96625 6.96625 6.96625 6.96625 6.96625 6.96625 6.96625 6.96625 6.96625 6.96625 6.96625 6.96625 6.96625 6.96625 6.96625 6.96625 6.96625 6.96625 6.96625 6.96625 6.96625 6.96625 6.96625 6.96625 6.96625 6.96625 6.96625 6.96625 6.96625 6.96625 6.96625 6.96625 6.96625 6.96625 6.96625 6.96625 6.96625 6.96625 6.96625 6.96625 6.96625 6.96625 6.96625 6.96625 6.96625 6.96625 6.96625 6.96625 6.96625 6.96625 6.96625 6.96625 6.96625 6.96625 6.96625 6.96625 6.96625 6.96625 6.96625 6.96625 6.96625 6.96625 6.96625 6.96625 6.96625 6.96625 6.96625 6.96625 6.96625 6.96625 6.96625 6.96625 6.96625 6.96625 6.96625 6.96625 6.96625 6.96625 6.96625 6.96625 6.96625 6.96625 6.96625 6.96625 6.96625 6.96625 6.96625 6.96625 6.96625 6.96625 6.96625 6.96625 6.96625 6.96625 6.96625 6.96625 6.96625 6.96625 6.96625 6.96625 6.96625 6.96625 6.96625 6.96625 6.96625 6.96625 6.96625 6.96625 6.96625 6.96625 6.96625 6.96625 6.96625 6.96625 6.96625 6.96625 6.96625 6.96625 6.96625 6.96625 6.96625 6.96625 6.96625 6.96625 6.96625 6.96625 6.96625 6.96625 6.96625 6.96625 6.96625 6.96674 6.96625 6.96625 6.96625 6.96625 6.96625 6.96625 6.96625 6.96625 6.96625 6.96625 6.96625 6.96625 6.96625 6.96625 6.96625 6.96625 6.96625 6.96625 6.96625 6.96625 6.96625 6.96625 6.96625 6.96625 6.96625 6.96625 6.96625 6.96625 6.96625 6.96625 6.96625 6.96625 6.96625 6.96625 6.96725 6.96875 6.96625 6.96625 6.96625 6.96625 6.96625 6.96625 6.96625 6.96625 6.96625 6.96625 6.96625 6.96625 6.96625 6.96625 6.96625 6.96625 6.96625 6.96625 6.96625 6.96625 6.96625 6.96625 6.96801 6.96625 6.96625 6.96625 6.96625 6.96625 6.96625 6.96625 6.96625 6.96625 6.96625 6.96625 6.96625 6.96625 6.96625 6.96625 6.96625 6.96625 6.96625 6.96625 6.96625 6.96625 6.96625 6.96625 6.96625 6.96625 6.96625 6.96625 6.96625 6.96625 6.96625 6.96625 6.96625 6.96625 6.96625 6.96625 6.96625 6.96625 6.96625 6.96625 6.96625 6.96625 6.96625 6.96625 6.96625 6.96625 6.96625
9.07386 9.71786 9.47184 9.76528 9.2993 9.47375 9.01365 9.12933 9.30722 9.14418 9.09843 9.19642 9.4289 9.02045 9.06176 9.82843 9.17128 8.87315 9.04068 9.73768 9.79927 9.29416 9.75813 9.40312 9.59988 10.324 10.5349 11.0529 11.0303 10.7259 10.4146 10.9523 10.8594 11.2327 10.6528 10.3252 10.3044 10.3157 10.3931 11.4884 12.5771 11.4641 10.6222 8.12187 8.86492 7.7785 7.48783 7.4147 7.28595 7.23313 7.23193 7.19577 7.13638 7.10908 7.08308 7.06979 7.05315 7.05818 7.04104 7.0336 7.03905 7.02576 7.03868 7.01887 7.0182 7.03644 7.03367 7.01289 7.00139 6.99829 6.99828 6.99775 6.99649 6.99645 6.99645 6.99645 6.99645 6.99645 6.99645 6.99645 6.99645 6.99645 6.99645 6.99645 6.99645 6.99645 6.99645 6.99645 6.99645 6.99645 6.99645 6.99645 6.99645 6.99645 6.99645 6.99645 6.99645 6.99645 6.99645 6.99645 6.99645 6.99645 6.99645 6.99645 6.99645 6.99645 6.99645 6.99645 6.99645 6.99645 6.99645 6.99645 6.99645 6.99645 6.99645 6.99645 6.99645 6.99645 6.99645 6.99645 6.99645 6.99645 6.99645 6.99645 6.99645 6.99645 6.99645 6.99645 6.99645 6.99645 6.99645 6.99645 6.99645 6.99645 6.99645 6.99645 6.99645 6.99645 6.99645 6.99645 6.99645 6.99645 6.99645 6.99645 6.99645 6.99645 6.99645 6.99645 6.99645 6.99645 6.99645 6.99645 6.99645 6.99645 6.99645 6.99645 6.99645 6.99645 6.99645 6.99645 6.99645 6.99645 6.99645 6.99645 6.99645 6.99645 6.99645 6.99645 6.99645 6.99645 6.99645 6.99645 6.99645 6.99645 6.99645 6.99645 6.99645 6.99645 6.99645 6.99645 6.99645 6.99645 6.99645 6.99645 6.99645 6.99645 6.99645 6.99645 6.99645 6.99645 6.99645 6.99645 6.99645 6.99645 6.99645 6.99645 6.99645 6.99645 6.99645 6.99645 6.99645 6.99645 6.99645 6.99645 6.99645 6.99645 6.99645 6.99645 6.99645 6.99645 6.99645 6.99645 6.99645 6.99645 6.99645 6.99645 6.99645 6.99645 6.99645 6.99645 6.99645 6.99645 6.99645 6.99645 6.99645 6.99645 6.99645 6.99645 6.99645 6.99645 6.99645 6.99645 6.99645 6.99645 6.99645 6.99645 6.99645 6.99645 6.99645 6.99645 6.99645 6.99645 6.99645 6.99645 6.99645 6.99645 6.99645 6.99645 6.99645 6.99645 6.99645 6.99645 6.99645 6.99645 6.99645 6.99645 6.99645 6.99645 6.99645 6.99645 6.99645 6.99645 6.99645 6.99645 6.99645 6.99645 6.99645 6.99645 6.99645 6.99645 6.99645 6.99645 6.99645 6.99645 6.99645 6.99645 6.99645 6.99645 6.99645 6.99645 6.99645 6.99645 6.99645 6.99645 6.99645 6.99645 6.99645 6.99645 6.99645 6.99645 6.99645 6.99645 6.99645 6.99645 6.99645 6.99645 6.99645 6.99645 6.99645 6.99645 6.99645 6.99645 6.99645 6.99645 6.99645 6.99645 6.99645 6.99748 6.99854 6.99671 6.99645 6.99645 6.99645 6.99645 6.99645 6.99645 6.99645 6.99645 6.99645 6.99645 6.99645 6.99645 6.99645 6.99645 6.99645 6.99645 6.99645 6.99645 6.99645 6.99645 6.99645 6.99991 6.99645 6.99645 6.99645 6.99645 6.99645 6.99645 6.99645 6.99645 6.99645 6.99645 6.99645 6.99645 6.99645 6.99645 6.99645 6.99645 6.99645 6.99645 6.99645 6.99645 6.99645 6.99645 6.99645 6.99645 6.99645 6.99645 6.99645 6.99645 6.99645 6.99645 6.99645 6.99645 6.99645 6.99645 6.99645 6.99645 6.99645 6.99645 6.99645 6.99645 6.99645 6.99645 6.99645 6.99645 6.99645 6.99645
